0.437 0.437 0.437 0.437 0.438 0.438 0.438 0.438 0.439 0.439 0.439 0.439 0.44 0.44 0.44 0.44 0.441 0.441 0.441 0.441 0.441 0.441 0.441 0.441 0.441 0.441 0.441 0.441 0.441 0.441 0.441 0.441 0.441 0.441 0.441 0.441 0.441 0.442 0.442 0.442 0.442 0.442 0.442 0.442 0.442 0.441 0.441 0.441 0.441 0.441 0.44 0.44 0.44 0.44 0.44 0.44 0.44 0.44 0.44 0.441 0.441 0.441 0.441 0.441 0.442 0.442 0.442 0.443 0.443 0.443 0.443 0.443 0.443 0.443 0.443 0.443 0.443 0.442 0.442 0.442 0.443 0.443 0.443 0.443 0.443 0.444 0.444 0.444 0.445 0.445 0.446 0.446 0.446 0.447 0.447 0.447 0.448 0.448 0.448 0.449 0.449 0.449 0.449 0.449 0.449 0.449 0.45 0.45 0.45 0.45 0.451 0.451 0.451 0.451 0.452 0.452 0.452 0.453 0.453 0.453 0.453 0.453 0.453 0.453 0.453 0.453 0.453 0.453 0.453 0.453 0.452 0.452 0.452 0.453 0.453 0.452 0.452 0.452 0.452 0.452 0.452 0.452 0.452 0.452 0.452 0.452 0.452 0.452 0.452 0.452 0.452 0.452 0.452 0.452 0.452 0.452 0.452 0.452 0.452 0.452 0.453 0.453 0.453 0.453 0.453 0.454 0.454 0.454 0.454 0.454 0.455 0.455 0.455 0.455 0.455 0.456 0.456 0.456 0.456 0.456 0.456 0.456 0.456 0.456 0.456 0.456 0.455 0.455 0.455 0.455 0.455 0.454 0.454 0.454 0.454 0 0.408 0.408 0.408 0.408 0.408 0.408 0.408 0.408 0.408 0.408 0.408 0.408 0.408 0.408 0.408 0.408 0.408 0.408 0.408 0.408 0.408 0.408 0.408 0.407 0.407 0.407 0.407 0.407 0.407 0.407 0.407 0.407 0.407 0.407 0.407 0.407 0.407 0.407 0.408 0.408 0.408 0.408 0.408 0.408 0.409 0.409 0.409 0.409 0.409 0.41 0.41 0.41 0.41 0.41 0.41 0.41 0.411 0.411 0.411 0.411 0.411 0.411 0.411 0.411 0.411 0.412 0.412 0.412 0.412 0.412 0.412 0.412 0.412 0.412 0.412 0.412 0.412 0.412 0.413 0.413 0.413 0.413 0.413 0.413 0.413 0.413 0.413 0.413 0.413 0.413 0.413 0.413 0.414 0.414 0.414 0.414 0 0 0 0.474 0.474 0.474 0.475 0.474 0.473 0.473 0.473 0.473 0.473 0.472 0.472 0.472 0.472 0.472 0.472 0.472 0.472 0.472 0.473 0.473 0.474 0.476 0.476 0.477 0.479 0.479 0.481 0.481 0.483 0.485 0.485 0.487 0.488 0.488 0.488 0.488 0.489 0.49 0.49 0 0 0 0 0 0 0 0 0 0 0 0 0 0 0 0 0 0 0 0 0 0 0 0 0 0 0 0 0 0 0 0.485 0.485 0.485 0.485 0.485 0.485 0.485 0.485 0.485 0.485 0.485 0.485 0.485 0.485 0.485 0.485 0.485 0.484 0.484 0.484 0.484 0.484 0.483 0.483 0.483 0.483 0.484 0.484 0 0 0 0 0 0 0 0 0 0 0 0 0 0 0 0 0 0 0 0 0 0 0 0 0 0 0 0 0 0 0 0 0 0 0 0 0 0 0 0 0 0 0 0 0 0 0 0 0 0 0 0 0 0 0 0 0 0 0 0 0 0 0 0 0 0 0 0 0 0 0 0 0 0 0 0 0 0 0 0 0 0 0 0 0 0
0.437 0.437 0.437 0.437 0.438 0.438 0.438 0.438 0.439 0.439 0.439 0.439 0.44 0.44 0.44 0.44 0.441 0.441 0.441 0.441 0.441 0.441 0.441 0.441 0.441 0.441 0.441 0.441 0.441 0.441 0.441 0.441 0.441 0.441 0.441 0.441 0.441 0.442 0.442 0.442 0.442 0.442 0.442 0.442 0.442 0.442 0.442 0.441 0.441 0.441 0.441 0.441 0.44 0.44 0.44 0.44 0.44 0.44 0.44 0.441 0.441 0.441 0.441 0.441 0.442 0.442 0.442 0.443 0.443 0.443 0.443 0.443 0.443 0.443 0.443 0.443 0.443 0.442 0.442 0.442 0.442 0.442 0.442 0.443 0.443 0.444 0.444 0.444 0.445 0.445 0.446 0.446 0.446 0.447 0.447 0.447 0.448 0.448 0.448 0.449 0.449 0.449 0.449 0.449 0.449 0.449 0.45 0.45 0.45 0.45 0.451 0.451 0.451 0.451 0.452 0.452 0.452 0.453 0.453 0.453 0.453 0.453 0.453 0.453 0.453 0.453 0.453 0.453 0.453 0.453 0.452 0.452 0.452 0.453 0.453 0.452 0.452 0.452 0.452 0.452 0.452 0.452 0.452 0.452 0.452 0.452 0.452 0.452 0.452 0.452 0.452 0.452 0.452 0.452 0.453 0.453 0.453 0.453 0.453 0.453 0.453 0.453 0.453 0.453 0.453 0.454 0.454 0.454 0.455 0.455 0.455 0.455 0.455 0.456 0.456 0.456 0.456 0.456 0.456 0.456 0.456 0.456 0.456 0.456 0.456 0.456 0.455 0.455 0.455 0.455 0.455 0.454 0.454 0.454 0.454 0 0.408 0.408 0.408 0.408 0.408 0.408 0.408 0.408 0.408 0.408 0.408 0.408 0.408 0.408 0.408 0.408 0.408 0.408 0.408 0.408 0.408 0.408 0.408 0.407 0.407 0.407 0.407 0.407 0.407 0.407 0.407 0.407 0.407 0.407 0.407 0.407 0.407 0.407 0.408 0.408 0.408 0.408 0.408 0.408 0.409 0.409 0.409 0.409 0.409 0.41 0.41 0.41 0.41 0.41 0.411 0.411 0.411 0.411 0.411 0.411 0.411 0.411 0.412 0.412 0.412 0.412 0.412 0.412 0.412 0.412 0.412 0.412 0.412 0.412 0.412 0.412 0.413 0.413 0.413 0.413 0.413 0.413 0.413 0.413 0.413 0.413 0.413 0.413 0.413 0.413 0.413 0.413 0.414 0.414 0.414 0.414 0 0 0.476 0.475 0.475 0.475 0.475 0.474 0.474 0.474 0.474 0.473 0.473 0.473 0.473 0.473 0.472 0.472 0.472 0.472 0.473 0.473 0.473 0.473 0.474 0.476 0.476 0.477 0.479 0.479 0.481 0.481 0.483 0.485 0.485 0.486 0.487 0.487 0.488 0.488 0.489 0.49 0.49 0 0 0 0 0 0 0 0 0 0 0 0 0 0 0 0 0 0 0 0 0 0 0 0 0 0 0 0 0 0 0 0.485 0.485 0.485 0.485 0.485 0.485 0.485 0.485 0.485 0.486 0.486 0.486 0.485 0.485 0.485 0.485 0.485 0.485 0.485 0.484 0.484 0.484 0.484 0.484 0.483 0.483 0.484 0.484 0 0 0 0 0 0 0 0 0 0 0 0 0 0 0 0 0 0 0 0 0 0 0 0 0 0 0 0 0 0 0 0 0 0 0 0 0 0 0 0 0 0 0 0 0 0 0 0 0 0 0 0 0 0 0 0 0 0 0 0 0 0 0 0 0 0 0 0 0 0 0 0 0 0 0 0 0 0 0 0 0 0 0 0 0 0
0.437 0.437 0.437 0.437 0.438 0.438 0.438 0.438 0.439 0.439 0.439 0.439 0.44 0.44 0.44 0.44 0.44 0.441 0.441 0.441 0.441 0.441 0.441 0.441 0.441 0.441 0.441 0.441 0.441 0.441 0.441 0.441 0.441 0.441 0.441 0.441 0.441 0.441 0.441 0.441 0.442 0.442 0.442 0.442 0.442 0.442 0.442 0.441 0.441 0.441 0.441 0.441 0.44 0.44 0.44 0.44 0.44 0.44 0.44 0.441 0.441 0.441 0.441 0.441 0.442 0.442 0.442 0.443 0.443 0.443 0.443 0.443 0.443 0.443 0.443 0.443 0.443 0.442 0.442 0.442 0.442 0.442 0.442 0.443 0.443 0.444 0.444 0.444 0.445 0.445 0.446 0.446 0.446 0.447 0.448 0.448 0.448 0.448 0.448 0.449 0.449 0.449 0.449 0.449 0.449 0.449 0.45 0.45 0.45 0.45 0.451 0.451 0.451 0.451 0.452 0.452 0.452 0.453 0.453 0.453 0.453 0.453 0.453 0.453 0.453 0.453 0.453 0.453 0.453 0.452 0.452 0.452 0.452 0.452 0.452 0.452 0.452 0.452 0.452 0.452 0.452 0.452 0.452 0.452 0.452 0.452 0.452 0.452 0.452 0.452 0.452 0.452 0.452 0.452 0.453 0.453 0.453 0.453 0.453 0.453 0.453 0.453 0.453 0.453 0.453 0.454 0.454 0.454 0.455 0.455 0.455 0.455 0.455 0.456 0.456 0.456 0.456 0.456 0.456 0.456 0.456 0.456 0.456 0.456 0.456 0.456 0.455 0.455 0.455 0.455 0.455 0.455 0.455 0.454 0.454 0 0.408 0.408 0.408 0.408 0.408 0.408 0.408 0.408 0.408 0.408 0.408 0.408 0.408 0.408 0.408 0.407 0.407 0.407 0.407 0.407 0.407 0.407 0.407 0.407 0.407 0.407 0.407 0.407 0.407 0.407 0.407 0.407 0.407 0.407 0.407 0.407 0.407 0.407 0.408 0.408 0.408 0.408 0.408 0.408 0.409 0.409 0.409 0.409 0.409 0.41 0.41 0.41 0.411 0.411 0.411 0.411 0.411 0.411 0.411 0.411 0.412 0.412 0.412 0.412 0.412 0.412 0.412 0.412 0.412 0.412 0.412 0.412 0.412 0.412 0.412 0.412 0.413 0.413 0.413 0.413 0.413 0.413 0.413 0.413 0.414 0.413 0.413 0.413 0.413 0.413 0.413 0.414 0.414 0.414 0.414 0.414 0 0 0.476 0.476 0.476 0.476 0.476 0.475 0.475 0.475 0.474 0.474 0.474 0.473 0.473 0.473 0.473 0.473 0.473 0.473 0.473 0.473 0.473 0.473 0.474 0.476 0.476 0.477 0.479 0.479 0.48 0.48 0.482 0.484 0.484 0.485 0.486 0.486 0.486 0.486 0.487 0.488 0.488 0 0 0 0 0 0 0 0 0 0 0 0 0 0 0 0 0 0 0 0 0 0 0 0 0 0 0 0 0 0 0 0.484 0.484 0.485 0.485 0.485 0.485 0.485 0.485 0.485 0.486 0.486 0.486 0.485 0.485 0.485 0.485 0.485 0.485 0.485 0.484 0.484 0.484 0.484 0.484 0.483 0.483 0.484 0.484 0.484 0 0 0 0 0 0 0 0 0 0 0 0 0 0 0 0 0 0 0 0 0 0 0 0 0 0 0 0 0 0 0 0 0 0 0 0 0 0 0 0 0 0 0 0 0 0 0 0 0 0 0 0 0 0 0 0 0 0 0 0 0 0 0 0 0 0 0 0 0 0 0 0 0 0 0 0 0 0 0 0 0 0 0 0 0
0.437 0.437 0.437 0.438 0.438 0.438 0.439 0.439 0.439 0.439 0.439 0.439 0.44 0.44 0.44 0.44 0.44 0.441 0.44 0.44 0.44 0.44 0.441 0.441 0.441 0.441 0.441 0.441 0.441 0.441 0.441 0.441 0.441 0.441 0.441 0.441 0.441 0.441 0.441 0.441 0.441 0.441 0.441 0.442 0.442 0.442 0.442 0.441 0.441 0.441 0.441 0.441 0.441 0.44 0.44 0.44 0.44 0.441 0.441 0.441 0.441 0.441 0.441 0.441 0.442 0.442 0.442 0.443 0.443 0.443 0.443 0.443 0.443 0.443 0.443 0.443 0.442 0.442 0.442 0.442 0.442 0.442 0.442 0.443 0.443 0.443 0.444 0.444 0.445 0.445 0.446 0.446 0.446 0.447 0.448 0.448 0.449 0.449 0.449 0.449 0.449 0.449 0.45 0.45 0.45 0.45 0.45 0.45 0.45 0.45 0.451 0.451 0.451 0.451 0.452 0.452 0.452 0.453 0.453 0.453 0.453 0.453 0.453 0.453 0.453 0.453 0.453 0.453 0.453 0.452 0.452 0.452 0.452 0.452 0.452 0.452 0.452 0.452 0.452 0.452 0.452 0.452 0.452 0.452 0.452 0.452 0.452 0.452 0.452 0.453 0.453 0.453 0.453 0.453 0.453 0.453 0.453 0.453 0.453 0.453 0.453 0.453 0.453 0.454 0.454 0.454 0.454 0.454 0.455 0.455 0.455 0.455 0.455 0.456 0.456 0.456 0.456 0.456 0.456 0.456 0.456 0.456 0.456 0.456 0.456 0.456 0.455 0.455 0.455 0.455 0.455 0.455 0.455 0.454 0.454 0.454 0.408 0.408 0.408 0.408 0.408 0.408 0.408 0.408 0.408 0.408 0.408 0.408 0.408 0.408 0.408 0.407 0.407 0.407 0.407 0.407 0.407 0.407 0.407 0.407 0.407 0.407 0.407 0.407 0.407 0.407 0.407 0.407 0.407 0.407 0.407 0.407 0.407 0.407 0.408 0.408 0.408 0.408 0.408 0.409 0.409 0.409 0.409 0.409 0.41 0.41 0.41 0.41 0.411 0.411 0.411 0.411 0.411 0.411 0.411 0.411 0.412 0.412 0.412 0.412 0.412 0.412 0.412 0.412 0.412 0.412 0.412 0.412 0.412 0.412 0.412 0.412 0.413 0.413 0.413 0.413 0.413 0.413 0.413 0.413 0.413 0.413 0.413 0.413 0.413 0.413 0.413 0.414 0.414 0.414 0.414 0.414 0 0 0.476 0.476 0.476 0.476 0.476 0.475 0.475 0.475 0.474 0.474 0.474 0.473 0.473 0.473 0.473 0.473 0.473 0.473 0.473 0.473 0.473 0.473 0.474 0.476 0.476 0.477 0.479 0.479 0.48 0.48 0.482 0.484 0.484 0.485 0.486 0.486 0.486 0.486 0.487 0.488 0.488 0 0 0 0 0 0 0 0 0 0 0 0 0 0 0 0 0 0 0 0 0 0 0 0 0 0 0 0 0 0 0 0.484 0.484 0.485 0.485 0.485 0.485 0.485 0.485 0.485 0.486 0.486 0.486 0.486 0.486 0.485 0.485 0.485 0.485 0.485 0.485 0.484 0.484 0.484 0.484 0.484 0.484 0.484 0.484 0.484 0.484 0 0 0 0 0 0 0 0 0 0 0 0 0 0 0 0 0 0 0 0 0 0 0 0 0 0 0 0 0 0 0 0 0 0 0 0 0 0 0 0 0 0 0 0 0 0 0 0 0 0 0 0 0 0 0 0 0 0 0 0 0 0 0 0 0 0 0 0 0 0 0 0 0 0 0 0 0 0 0 0 0 0 0 0
0.437 0.437 0.437 0.437 0.438 0.438 0.438 0.438 0.439 0.439 0.439 0.439 0.439 0.439 0.44 0.44 0.44 0.44 0.44 0.44 0.44 0.44 0.441 0.441 0.441 0.441 0.441 0.441 0.441 0.441 0.441 0.441 0.441 0.441 0.441 0.441 0.441 0.441 0.441 0.441 0.441 0.441 0.441 0.442 0.442 0.442 0.442 0.442 0.441 0.441 0.441 0.441 0.441 0.441 0.441 0.441 0.441 0.441 0.441 0.441 0.441 0.441 0.442 0.442 0.442 0.442 0.443 0.443 0.443 0.443 0.443 0.443 0.443 0.443 0.443 0.443 0.442 0.442 0.442 0.442 0.442 0.442 0.442 0.443 0.443 0.443 0.444 0.444 0.445 0.445 0.446 0.446 0.446 0.447 0.448 0.448 0.449 0.449 0.449 0.449 0.449 0.449 0.45 0.45 0.45 0.45 0.45 0.45 0.45 0.45 0.45 0.451 0.451 0.451 0.452 0.452 0.452 0.452 0.452 0.453 0.453 0.453 0.453 0.453 0.453 0.453 0.453 0.453 0.453 0.452 0.452 0.452 0.452 0.452 0.452 0.452 0.452 0.452 0.452 0.452 0.452 0.452 0.452 0.452 0.452 0.452 0.453 0.453 0.453 0.453 0.453 0.453 0.453 0.453 0.453 0.454 0.453 0.453 0.453 0.454 0.454 0.454 0.454 0.454 0.454 0.454 0.454 0.455 0.455 0.455 0.455 0.456 0.456 0.456 0.456 0.456 0.456 0.456 0.456 0.457 0.456 0.456 0.456 0.456 0.456 0.456 0.455 0.455 0.455 0.455 0.455 0.455 0.455 0.454 0.454 0.454 0.407 0.407 0.407 0.408 0.408 0.408 0.408 0.407 0.407 0.408 0.407 0.407 0.407 0.407 0.407 0.407 0.407 0.407 0.407 0.407 0.407 0.407 0.407 0.407 0.407 0.407 0.407 0.407 0.407 0.407 0.407 0.407 0.407 0.407 0.407 0.407 0.407 0.407 0.408 0.408 0.408 0.408 0.408 0.409 0.409 0.409 0.409 0.409 0.41 0.41 0.41 0.411 0.411 0.411 0.411 0.411 0.411 0.411 0.411 0.412 0.412 0.412 0.412 0.412 0.412 0.412 0.412 0.412 0.412 0.412 0.412 0.412 0.412 0.412 0.412 0.412 0.413 0.413 0.413 0.413 0.413 0.413 0.413 0.413 0.413 0.413 0.413 0.413 0.413 0.413 0.413 0.413 0.414 0.414 0.414 0.414 0 0 0 0.477 0.477 0.476 0.476 0.476 0.476 0.476 0.475 0.474 0.474 0.474 0.474 0.474 0.473 0.473 0.473 0.473 0.473 0.473 0.474 0.474 0.474 0.476 0.476 0.477 0.478 0.478 0.48 0.48 0.482 0.483 0.483 0.484 0.485 0.485 0.485 0.485 0.485 0.485 0.485 0.486 0 0 0 0 0 0 0 0 0 0 0 0 0 0 0 0 0 0 0 0 0 0 0 0 0 0 0 0 0 0 0.484 0.484 0.485 0.485 0.485 0.485 0.485 0.485 0.485 0.486 0.486 0.486 0.486 0.486 0.485 0.485 0.485 0.485 0.485 0.485 0.484 0.484 0.484 0.484 0.484 0.484 0.484 0.484 0.484 0.484 0 0 0 0 0 0 0 0 0 0 0 0 0 0 0 0 0 0 0 0 0 0 0 0 0 0 0 0 0 0 0 0 0 0 0 0 0 0 0 0 0 0 0 0 0 0 0 0 0 0 0 0 0 0 0 0 0 0 0 0 0 0 0 0 0 0 0 0 0 0 0 0 0 0 0 0 0 0 0 0 0 0 0 0
0.437 0.437 0.437 0.437 0.438 0.438 0.438 0.438 0.439 0.439 0.439 0.439 0.439 0.439 0.439 0.439 0.44 0.44 0.44 0.44 0.44 0.44 0.44 0.44 0.44 0.441 0.44 0.44 0.44 0.44 0.44 0.44 0.441 0.441 0.441 0.441 0.441 0.441 0.441 0.441 0.441 0.441 0.441 0.441 0.441 0.442 0.442 0.442 0.441 0.441 0.441 0.441 0.441 0.441 0.441 0.441 0.441 0.441 0.441 0.441 0.441 0.441 0.442 0.442 0.442 0.442 0.443 0.443 0.443 0.443 0.443 0.443 0.444 0.443 0.443 0.443 0.442 0.442 0.442 0.442 0.442 0.442 0.443 0.443 0.443 0.443 0.444 0.444 0.445 0.445 0.446 0.447 0.447 0.448 0.448 0.448 0.449 0.449 0.449 0.449 0.449 0.449 0.45 0.45 0.45 0.45 0.45 0.45 0.45 0.45 0.45 0.451 0.451 0.451 0.452 0.452 0.452 0.452 0.452 0.453 0.453 0.453 0.453 0.453 0.453 0.453 0.453 0.452 0.452 0.452 0.452 0.452 0.452 0.452 0.452 0.452 0.452 0.452 0.452 0.452 0.452 0.452 0.452 0.452 0.452 0.452 0.453 0.453 0.453 0.453 0.453 0.453 0.453 0.453 0.453 0.454 0.453 0.453 0.453 0.454 0.454 0.454 0.454 0.454 0.454 0.454 0.454 0.455 0.455 0.455 0.455 0.456 0.456 0.456 0.456 0.456 0.456 0.456 0.456 0.457 0.456 0.456 0.456 0.456 0.456 0.456 0.455 0.455 0.455 0.455 0.455 0.455 0.455 0.454 0.454 0.454 0.407 0.407 0.407 0.407 0.408 0.407 0.407 0.407 0.407 0.408 0.407 0.407 0.407 0.407 0.407 0.407 0.407 0.407 0.407 0.407 0.407 0.407 0.407 0.407 0.407 0.407 0.407 0.407 0.407 0.407 0.407 0.407 0.407 0.407 0.407 0.407 0.407 0.407 0.408 0.408 0.408 0.408 0.408 0.409 0.409 0.409 0.409 0.409 0.41 0.41 0.41 0.411 0.411 0.411 0.411 0.411 0.411 0.411 0.411 0.412 0.412 0.412 0.412 0.412 0.412 0.412 0.412 0.412 0.412 0.412 0.412 0.412 0.412 0.413 0.413 0.413 0.413 0.413 0.413 0.413 0.413 0.413 0.413 0.413 0.413 0.413 0.413 0.413 0.413 0.413 0.413 0.413 0.414 0.414 0.414 0.414 0 0 0 0.477 0.477 0.477 0.477 0.476 0.476 0.476 0.476 0.475 0.475 0.474 0.474 0.474 0.473 0.473 0.473 0.473 0.473 0.473 0.474 0.474 0.474 0.476 0.476 0.477 0.478 0.478 0.48 0.48 0.482 0.483 0.483 0.483 0.484 0.484 0.484 0.484 0.484 0.484 0.483 0.483 0 0 0 0 0 0 0 0 0 0 0 0 0 0 0 0 0 0 0 0 0 0 0 0 0 0 0 0 0 0 0.484 0.484 0.484 0.484 0.485 0.485 0.485 0.485 0.485 0.486 0.486 0.486 0.486 0.486 0.485 0.485 0.485 0.485 0.485 0.485 0.484 0.484 0.484 0.484 0.484 0.484 0.484 0.484 0.484 0.484 0 0 0 0 0 0 0 0 0 0 0 0 0 0 0 0 0 0 0 0 0 0 0 0 0 0 0 0 0 0 0 0 0 0 0 0 0 0 0 0 0 0 0 0 0 0 0 0 0 0 0 0 0 0 0 0 0 0 0 0 0 0 0 0 0 0 0 0 0 0 0 0 0 0 0 0 0 0 0 0 0 0 0 0
0.437 0.437 0.437 0.437 0.438 0.438 0.438 0.438 0.439 0.439 0.439 0.439 0.439 0.439 0.439 0.439 0.44 0.44 0.44 0.44 0.44 0.44 0.44 0.44 0.44 0.441 0.44 0.44 0.44 0.44 0.44 0.44 0.441 0.441 0.441 0.441 0.441 0.441 0.441 0.441 0.441 0.441 0.441 0.441 0.441 0.442 0.442 0.442 0.441 0.441 0.441 0.441 0.441 0.441 0.441 0.441 0.441 0.441 0.441 0.441 0.441 0.441 0.442 0.442 0.442 0.442 0.443 0.443 0.443 0.443 0.443 0.443 0.444 0.443 0.443 0.443 0.443 0.442 0.442 0.442 0.442 0.442 0.443 0.443 0.443 0.443 0.444 0.444 0.445 0.445 0.446 0.447 0.447 0.448 0.448 0.448 0.449 0.449 0.449 0.449 0.449 0.449 0.45 0.45 0.45 0.45 0.45 0.45 0.45 0.45 0.45 0.451 0.451 0.451 0.452 0.452 0.452 0.452 0.452 0.453 0.453 0.453 0.453 0.453 0.453 0.453 0.453 0.452 0.452 0.452 0.452 0.452 0.452 0.452 0.452 0.452 0.452 0.452 0.452 0.452 0.452 0.452 0.452 0.452 0.452 0.452 0.453 0.453 0.453 0.453 0.453 0.454 0.454 0.454 0.454 0.454 0.454 0.454 0.454 0.454 0.454 0.454 0.454 0.454 0.454 0.455 0.455 0.455 0.455 0.455 0.456 0.456 0.456 0.456 0.456 0.456 0.457 0.457 0.457 0.457 0.457 0.457 0.456 0.456 0.456 0.456 0.455 0.455 0.455 0.455 0.455 0.454 0.454 0.454 0.454 0.454 0.407 0.407 0.407 0.407 0.408 0.407 0.407 0.407 0.408 0.408 0.408 0.407 0.407 0.407 0.407 0.407 0.407 0.407 0.407 0.407 0.407 0.407 0.407 0.407 0.407 0.407 0.407 0.407 0.407 0.407 0.407 0.407 0.407 0.407 0.407 0.407 0.407 0.407 0.408 0.408 0.408 0.408 0.408 0.409 0.409 0.409 0.41 0.41 0.41 0.411 0.411 0.411 0.411 0.411 0.411 0.411 0.411 0.412 0.412 0.412 0.412 0.412 0.412 0.412 0.412 0.412 0.412 0.412 0.412 0.412 0.412 0.412 0.412 0.413 0.413 0.413 0.413 0.413 0.413 0.413 0.413 0.413 0.413 0.413 0.413 0.413 0.413 0.413 0.413 0.413 0.413 0.413 0.413 0.413 0.413 0.413 0 0 0 0.477 0.477 0.477 0.477 0.476 0.476 0.476 0.476 0.475 0.475 0.474 0.474 0.474 0.473 0.473 0.473 0.473 0.473 0.473 0.474 0.474 0.474 0.476 0.476 0.476 0.478 0.478 0.479 0.479 0.481 0.482 0.482 0.483 0.484 0.484 0.484 0.484 0.484 0.484 0.483 0.483 0 0 0 0 0 0 0 0 0 0 0 0 0 0 0 0 0 0 0 0 0 0 0 0 0 0 0 0 0 0 0.484 0.484 0.484 0.484 0.485 0.485 0.485 0.485 0.485 0.486 0.486 0.486 0.486 0.486 0.485 0.485 0.485 0.485 0.485 0.485 0.485 0.484 0.484 0.485 0.484 0.484 0.484 0.484 0.484 0.484 0 0 0 0 0 0 0 0 0 0 0 0 0 0 0 0 0 0 0 0 0 0.241 0.241 0 0.241 0.241 0.241 0.241 0.241 0.24 0.24 0.24 0.24 0 0 0 0 0 0 0 0 0 0 0 0 0 0 0 0 0 0 0 0 0 0 0 0 0 0 0 0 0 0 0 0 0 0 0 0 0 0 0 0 0 0 0 0 0 0 0 0 0 0 0
0.437 0.437 0.437 0.437 0.438 0.438 0.438 0.438 0.439 0.439 0.439 0.439 0.439 0.439 0.439 0.439 0.44 0.44 0.44 0.44 0.44 0.44 0.44 0.44 0.44 0.44 0.44 0.44 0.44 0.44 0.44 0.44 0.44 0.44 0.44 0.44 0.44 0.44 0.441 0.441 0.441 0.441 0.441 0.441 0.441 0.442 0.442 0.442 0.442 0.442 0.442 0.442 0.441 0.441 0.441 0.441 0.441 0.441 0.441 0.441 0.441 0.441 0.442 0.442 0.443 0.443 0.443 0.443 0.443 0.444 0.444 0.444 0.444 0.444 0.443 0.443 0.443 0.443 0.443 0.443 0.443 0.443 0.443 0.443 0.443 0.444 0.444 0.444 0.445 0.445 0.446 0.447 0.447 0.448 0.449 0.449 0.449 0.449 0.449 0.449 0.449 0.45 0.45 0.45 0.45 0.45 0.45 0.45 0.45 0.45 0.45 0.451 0.451 0.451 0.451 0.452 0.452 0.452 0.452 0.453 0.453 0.453 0.453 0.453 0.453 0.453 0.453 0.452 0.452 0.452 0.452 0.452 0.452 0.452 0.452 0.452 0.452 0.452 0.452 0.452 0.452 0.452 0.452 0.452 0.452 0.452 0.453 0.453 0.453 0.453 0.453 0.454 0.454 0.454 0.454 0.454 0.454 0.454 0.454 0.454 0.454 0.454 0.454 0.455 0.455 0.455 0.455 0.455 0.456 0.456 0.456 0.456 0.456 0.456 0.456 0.456 0.457 0.457 0.457 0.457 0.457 0.457 0.456 0.456 0.456 0.456 0.456 0.455 0.455 0.455 0.455 0.454 0.454 0.454 0.454 0.454 0.407 0.407 0.407 0.407 0.407 0.407 0.407 0.407 0.407 0.408 0.407 0.407 0.407 0.407 0.407 0.407 0.407 0.407 0.407 0.407 0.407 0.407 0.407 0.407 0.407 0.407 0.407 0.407 0.407 0.407 0.407 0.407 0.407 0.407 0.407 0.407 0.407 0.407 0.408 0.408 0.408 0.409 0.409 0.409 0.409 0.409 0.41 0.41 0.411 0.411 0.411 0.411 0.411 0.411 0.411 0.411 0.412 0.412 0.412 0.412 0.412 0.412 0.412 0.412 0.412 0.412 0.412 0.412 0.412 0.412 0.412 0.412 0.413 0.413 0.413 0.413 0.413 0.413 0.413 0.413 0.413 0.413 0.413 0.413 0.413 0.413 0.413 0.413 0.413 0.414 0.413 0.413 0.413 0.413 0.413 0.413 0.413 0 0 0.478 0.478 0.477 0.477 0.477 0.477 0.477 0.476 0.476 0.476 0.475 0.475 0.474 0.474 0.474 0.473 0.473 0.473 0.473 0.474 0.474 0.474 0.476 0.476 0.476 0.478 0.478 0.479 0.479 0.48 0.482 0.482 0.482 0.483 0.482 0.482 0.482 0.482 0.482 0.482 0.482 0 0 0 0 0 0 0 0 0 0 0 0 0 0 0 0 0 0 0 0 0 0 0 0 0 0 0 0 0 0 0.484 0.484 0.484 0.484 0.485 0.485 0.485 0.485 0.485 0.485 0.486 0.486 0.486 0.486 0.485 0.485 0.485 0.485 0.485 0.485 0.485 0.484 0.484 0.485 0.484 0.484 0.484 0.484 0 0 0 0 0 0 0 0 0 0 0 0 0 0 0 0 0 0 0 0 0 0 0 0.241 0.241 0 0.241 0.241 0.241 0.241 0.241 0.24 0.24 0.24 0.24 0 0 0 0 0 0 0 0 0 0 0 0 0 0 0 0 0 0 0 0 0 0 0 0 0 0 0 0 0 0 0 0 0 0 0 0 0 0 0 0 0 0 0 0 0 0 0 0 0 0 0
0.437 0.437 0.437 0.437 0.438 0.438 0.438 0.438 0.439 0.439 0.439 0.439 0.439 0.439 0.439 0.439 0.44 0.44 0.44 0.44 0.44 0.44 0.44 0.44 0.44 0.44 0.44 0.44 0.44 0.44 0.44 0.44 0.44 0.44 0.44 0.44 0.44 0.44 0.44 0.44 0.441 0.441 0.441 0.441 0.441 0.442 0.442 0.442 0.442 0.442 0.442 0.442 0.441 0.441 0.441 0.441 0.441 0.441 0.441 0.441 0.441 0.441 0.442 0.442 0.443 0.443 0.443 0.443 0.443 0.444 0.444 0.444 0.444 0.444 0.443 0.443 0.443 0.443 0.443 0.443 0.443 0.443 0.443 0.443 0.443 0.444 0.444 0.444 0.445 0.445 0.446 0.447 0.447 0.448 0.449 0.449 0.449 0.449 0.45 0.45 0.45 0.45 0.45 0.45 0.45 0.45 0.45 0.45 0.45 0.45 0.45 0.451 0.451 0.451 0.451 0.452 0.452 0.452 0.452 0.453 0.453 0.453 0.453 0.453 0.453 0.453 0.453 0.452 0.452 0.452 0.452 0.452 0.452 0.452 0.452 0.452 0.452 0.452 0.452 0.452 0.452 0.452 0.452 0.453 0.453 0.453 0.453 0.453 0.453 0.454 0.454 0.454 0.454 0.454 0.454 0.454 0.454 0.454 0.454 0.454 0.454 0.454 0.454 0.455 0.455 0.455 0.455 0.455 0.456 0.456 0.456 0.456 0.456 0.456 0.456 0.456 0.457 0.457 0.457 0.457 0.457 0.457 0.456 0.456 0.456 0.456 0.456 0.455 0.455 0.455 0.455 0.454 0.454 0.454 0.454 0.454 0.407 0.407 0.407 0.407 0.407 0.407 0.407 0.407 0.407 0.407 0.407 0.407 0.407 0.407 0.407 0.407 0.407 0.407 0.407 0.407 0.407 0.407 0.407 0.407 0.407 0.407 0.407 0.407 0.407 0.407 0.407 0.407 0.407 0.407 0.407 0.407 0.408 0.408 0.408 0.408 0.408 0.409 0.409 0.409 0.409 0.409 0.41 0.41 0.411 0.411 0.411 0.411 0.411 0.411 0.411 0.411 0.412 0.412 0.412 0.412 0.412 0.412 0.412 0.412 0.412 0.412 0.412 0.412 0.412 0.412 0.412 0.412 0.413 0.413 0.413 0.413 0.413 0.413 0.413 0.413 0.413 0.413 0.413 0.413 0.413 0.413 0.413 0.413 0.413 0.414 0.413 0.413 0.414 0.413 0.413 0.413 0.413 0 0 0.479 0.479 0.477 0.477 0.477 0.477 0.477 0.476 0.476 0.476 0.475 0.475 0.474 0.474 0.474 0.473 0.473 0.473 0.473 0.474 0.474 0.475 0.476 0.476 0.477 0.478 0.478 0.479 0.479 0.48 0.482 0.482 0.482 0.483 0.482 0.482 0.482 0.482 0.482 0.482 0.482 0 0 0 0 0 0 0 0 0 0 0 0 0 0 0 0 0 0 0 0 0 0 0 0 0 0 0 0 0 0 0.484 0.484 0.484 0.484 0.484 0.484 0.485 0.485 0.485 0.485 0.486 0.485 0.485 0.485 0.485 0.485 0.485 0.485 0.485 0.485 0.485 0.484 0.484 0.484 0.484 0.484 0.484 0.484 0 0 0 0 0 0 0 0 0 0 0 0 0 0 0 0 0 0 0 0 0 0 0 0.241 0.241 0 0.241 0.241 0.241 0.241 0.241 0.24 0.24 0.24 0.24 0 0 0 0 0 0 0 0 0 0 0 0 0 0 0 0 0 0 0 0 0 0 0 0 0 0 0 0 0 0 0 0 0 0 0 0 0 0 0 0 0 0 0 0 0 0 0 0 0 0 0
0.436 0.437 0.437 0.437 0.438 0.438 0.438 0.438 0.439 0.439 0.439 0.439 0.439 0.439 0.439 0.439 0.44 0.44 0.44 0.44 0.44 0.44 0.44 0.44 0.44 0.44 0.44 0.44 0.44 0.44 0.44 0.44 0.44 0.44 0.44 0.44 0.44 0.44 0.44 0.44 0.441 0.441 0.441 0.441 0.441 0.442 0.442 0.442 0.442 0.442 0.442 0.442 0.442 0.441 0.441 0.441 0.441 0.441 0.441 0.442 0.442 0.442 0.442 0.442 0.443 0.443 0.443 0.444 0.444 0.444 0.444 0.444 0.444 0.444 0.444 0.444 0.443 0.443 0.443 0.443 0.443 0.443 0.443 0.443 0.443 0.444 0.445 0.445 0.445 0.445 0.446 0.447 0.447 0.448 0.449 0.449 0.449 0.449 0.45 0.45 0.45 0.45 0.45 0.45 0.45 0.45 0.45 0.45 0.45 0.45 0.45 0.451 0.451 0.451 0.451 0.452 0.452 0.452 0.452 0.452 0.453 0.453 0.453 0.453 0.453 0.453 0.453 0.452 0.452 0.452 0.452 0.452 0.452 0.452 0.452 0.452 0.452 0.452 0.452 0.452 0.452 0.452 0.452 0.453 0.453 0.453 0.453 0.454 0.454 0.454 0.454 0.454 0.454 0.454 0.454 0.455 0.455 0.455 0.455 0.455 0.455 0.455 0.455 0.455 0.455 0.455 0.455 0.455 0.456 0.456 0.456 0.456 0.456 0.456 0.456 0.456 0.457 0.457 0.457 0.456 0.456 0.456 0.456 0.456 0.456 0.456 0.456 0.456 0.455 0.455 0.455 0.455 0.455 0.454 0.454 0.453 0.453 0 0.407 0.407 0.408 0.407 0.407 0.407 0.407 0.407 0.407 0.407 0.407 0.407 0.407 0.407 0.407 0.407 0.407 0.407 0.407 0.407 0.407 0.407 0.407 0.407 0.407 0.407 0.407 0.407 0.407 0.407 0.407 0.407 0.407 0.407 0.408 0.408 0.408 0.408 0.408 0.409 0.409 0.409 0.41 0.41 0.41 0.41 0.411 0.411 0.411 0.411 0.411 0.411 0.412 0.412 0.412 0.412 0.412 0.412 0.412 0.412 0.412 0.412 0.412 0.412 0.412 0.412 0.412 0.412 0.413 0.413 0.413 0.413 0.413 0.413 0.413 0.413 0.413 0.413 0.413 0.413 0.413 0.413 0.413 0.413 0.413 0.413 0.413 0.413 0.413 0.413 0.413 0.413 0.413 0.413 0.413 0 0 0.479 0.479 0.479 0.479 0.478 0.477 0.477 0.477 0.477 0.477 0.476 0.476 0.475 0.474 0.474 0.474 0.474 0.474 0.474 0.474 0.474 0.475 0.476 0.476 0.476 0.477 0.477 0.479 0.479 0.48 0.481 0.481 0.482 0.482 0.482 0.482 0.481 0.481 0.481 0.48 0.48 0 0 0 0.478 0.478 0.478 0.478 0.479 0 0.48 0.48 0.48 0.48 0.48 0.48 0 0 0 0 0 0 0 0 0 0 0 0 0 0 0 0 0.484 0.484 0.484 0.484 0.484 0.485 0.485 0.485 0.485 0.486 0.485 0.485 0.485 0.485 0.485 0.485 0.485 0.485 0.485 0.485 0.484 0.484 0.484 0.484 0.484 0.484 0.484 0 0 0 0 0 0 0 0 0 0 0 0 0 0 0 0 0 0 0 0 0 0.241 0.241 0.241 0.241 0 0.241 0.241 0.241 0.241 0.241 0.24 0.24 0.24 0.24 0 0 0 0 0 0 0 0 0 0 0 0 0 0 0 0 0 0 0 0 0 0 0 0 0 0 0 0 0 0 0 0 0 0 0 0 0 0 0 0 0 0 0 0 0 0 0 0 0 0 0
0.436 0.437 0.437 0.437 0.438 0.438 0.438 0.438 0.439 0.439 0.439 0.439 0.439 0.439 0.439 0.439 0.439 0.439 0.439 0.439 0.439 0.44 0.44 0.44 0.44 0.44 0.44 0.44 0.44 0.44 0.44 0.44 0.44 0.44 0.44 0.44 0.44 0.44 0.44 0.44 0.441 0.441 0.441 0.441 0.441 0.442 0.442 0.442 0.442 0.442 0.442 0.442 0.442 0.441 0.441 0.441 0.441 0.441 0.441 0.442 0.442 0.442 0.442 0.442 0.443 0.443 0.443 0.444 0.444 0.444 0.444 0.444 0.444 0.444 0.444 0.444 0.443 0.443 0.443 0.443 0.443 0.443 0.443 0.444 0.444 0.444 0.445 0.445 0.446 0.446 0.447 0.448 0.448 0.449 0.449 0.449 0.45 0.45 0.45 0.45 0.45 0.45 0.45 0.45 0.45 0.45 0.45 0.45 0.45 0.45 0.45 0.45 0.451 0.451 0.451 0.451 0.451 0.452 0.452 0.452 0.452 0.452 0.452 0.452 0.452 0.452 0.452 0.452 0.452 0.452 0.452 0.452 0.452 0.452 0.452 0.452 0.452 0.452 0.452 0.452 0.452 0.452 0.452 0.452 0.453 0.453 0.453 0.454 0.454 0.454 0.454 0.454 0.454 0.454 0.454 0.455 0.455 0.455 0.455 0.455 0.455 0.455 0.455 0.455 0.455 0.455 0.455 0.455 0.456 0.456 0.456 0.456 0.456 0.456 0.456 0.456 0.457 0.457 0.457 0.456 0.456 0.456 0.456 0.456 0.456 0.456 0.456 0.456 0.455 0.455 0.455 0.455 0.455 0.455 0.455 0.453 0.453 0 0.407 0.407 0.407 0.407 0.407 0.407 0.407 0.407 0.407 0.407 0.407 0.407 0.407 0.407 0.407 0.407 0.407 0.407 0.407 0.407 0.407 0.407 0.407 0.407 0.407 0.407 0.407 0.407 0.407 0.407 0.407 0.407 0.407 0.407 0.408 0.408 0.408 0.408 0.408 0.409 0.409 0.409 0.41 0.41 0.41 0.41 0.411 0.411 0.411 0.411 0.412 0.412 0.412 0.412 0.412 0.412 0.412 0.412 0.412 0.412 0.412 0.412 0.412 0.412 0.412 0.412 0.413 0.413 0.413 0.413 0.413 0.413 0.413 0.413 0.413 0.413 0.413 0.413 0.413 0.413 0.413 0.413 0.413 0.413 0.413 0.413 0.413 0.413 0.413 0.413 0.413 0.413 0.413 0.413 0.413 0 0 0 0 0.48 0.48 0.479 0.479 0.479 0.478 0.478 0.478 0.477 0.477 0.476 0.475 0.475 0.475 0.474 0.474 0.474 0.474 0.474 0.475 0.476 0.476 0.476 0.477 0.477 0.479 0.479 0.48 0.48 0.48 0.481 0.481 0.481 0.481 0.48 0.48 0.48 0.48 0.479 0.479 0.478 0.478 0.478 0.478 0.478 0.478 0.479 0.479 0.479 0.48 0.48 0.48 0.48 0.48 0 0 0 0 0 0 0 0 0 0 0 0 0 0 0 0 0.483 0.483 0.483 0.484 0.484 0.484 0.485 0.485 0.485 0.485 0.485 0.485 0.485 0.485 0.485 0.485 0.485 0.485 0.484 0.484 0.484 0.484 0.484 0.484 0.484 0.484 0.484 0 0 0 0 0 0 0 0 0 0 0 0 0 0 0 0 0 0 0 0 0 0.241 0.241 0.241 0.241 0 0.241 0.241 0.241 0.241 0.241 0.24 0.24 0.24 0.24 0 0 0 0 0 0 0 0 0 0 0 0 0 0 0 0 0 0 0 0 0 0 0 0 0 0 0 0 0 0 0 0 0 0 0 0 0 0 0 0 0 0 0 0 0 0 0 0 0 0 0
0.436 0.437 0.437 0.437 0.438 0.438 0.438 0.438 0.439 0.439 0.439 0.439 0.439 0.439 0.44 0.44 0.439 0.439 0.439 0.439 0.439 0.44 0.44 0.44 0.44 0.44 0.44 0.44 0.44 0.44 0.44 0.44 0.44 0.44 0.44 0.44 0.44 0.44 0.44 0.44 0.441 0.441 0.441 0.441 0.441 0.442 0.442 0.442 0.442 0.442 0.442 0.442 0.442 0.442 0.442 0.442 0.442 0.442 0.442 0.442 0.442 0.442 0.442 0.442 0.443 0.443 0.443 0.443 0.443 0.444 0.444 0.444 0.444 0.444 0.444 0.444 0.443 0.443 0.443 0.443 0.443 0.443 0.443 0.444 0.444 0.444 0.445 0.445 0.446 0.446 0.447 0.448 0.448 0.449 0.449 0.449 0.45 0.45 0.45 0.45 0.45 0.45 0.45 0.45 0.45 0.45 0.45 0.45 0.45 0.45 0.45 0.45 0.451 0.451 0.451 0.451 0.451 0.452 0.452 0.452 0.452 0.452 0.452 0.452 0.452 0.452 0.452 0.452 0.452 0.452 0.452 0.452 0.452 0.452 0.452 0.452 0.452 0.452 0.452 0.452 0.452 0.452 0.452 0.452 0.453 0.453 0.453 0.454 0.454 0.454 0.454 0.454 0.455 0.455 0.455 0.455 0.455 0.455 0.455 0.455 0.455 0.455 0.455 0.455 0.455 0.455 0.455 0.455 0.456 0.456 0.456 0.456 0.456 0.456 0.456 0.456 0.456 0.456 0.456 0.456 0.456 0.456 0.456 0.456 0.456 0.456 0.456 0.456 0.455 0.455 0.455 0.455 0.455 0.455 0.455 0.449 0.449 0 0.408 0.407 0.407 0.407 0.408 0.407 0.407 0.408 0.408 0.407 0.407 0.407 0.407 0.407 0.407 0.407 0.407 0.407 0.407 0.407 0.407 0.407 0.407 0.407 0.407 0.407 0.407 0.407 0.407 0.407 0.407 0.407 0.407 0.407 0.408 0.408 0.408 0.408 0.409 0.409 0.409 0.409 0.41 0.41 0.41 0.41 0.411 0.411 0.411 0.411 0.412 0.412 0.412 0.412 0.412 0.412 0.412 0.412 0.412 0.412 0.412 0.412 0.412 0.412 0.412 0.412 0.413 0.413 0.413 0.413 0.413 0.413 0.413 0.413 0.413 0.413 0.413 0.413 0.413 0.413 0.413 0.413 0.413 0.413 0.413 0.413 0.413 0.413 0.413 0.413 0.413 0.413 0.413 0.413 0.413 0 0 0 0 0.48 0.48 0.479 0.479 0.479 0.478 0.478 0.478 0.477 0.477 0.476 0.475 0.475 0.475 0.474 0.474 0.474 0.474 0.474 0.475 0.476 0.476 0.476 0.477 0.477 0.479 0.479 0.48 0.48 0.48 0.481 0.481 0.481 0.481 0.48 0.48 0.48 0.48 0.479 0.479 0.478 0.478 0.478 0.478 0.478 0.478 0.479 0.479 0.479 0.48 0.48 0.48 0 0 0 0 0 0 0 0 0 0 0 0 0 0 0 0 0 0 0.483 0.483 0.483 0.483 0.483 0.484 0.484 0.484 0.484 0.485 0.485 0.485 0.485 0.485 0.485 0.485 0.485 0.485 0.484 0.484 0.484 0.484 0.484 0.484 0.484 0.484 0.484 0 0 0 0 0 0 0 0 0 0 0 0 0 0 0 0 0 0 0 0 0 0.241 0.241 0.241 0.241 0.241 0.241 0.241 0.241 0.241 0.241 0.24 0.24 0.24 0.24 0 0 0 0 0 0 0 0 0 0 0 0 0 0 0 0 0 0 0 0 0 0 0 0 0 0 0 0 0 0 0 0 0 0 0 0 0 0 0 0 0 0 0 0 0 0 0 0 0 0 0
0.436 0.436 0.436 0.437 0.437 0.437 0.438 0.438 0.439 0.439 0.439 0.439 0.439 0.439 0.439 0.439 0.439 0.439 0.439 0.439 0.439 0.44 0.44 0.44 0.44 0.44 0.44 0.44 0.44 0.44 0.44 0.44 0.44 0.44 0.44 0.44 0.44 0.44 0.44 0.44 0.441 0.441 0.441 0.441 0.441 0.442 0.442 0.442 0.443 0.443 0.442 0.442 0.442 0.442 0.442 0.442 0.442 0.442 0.442 0.442 0.442 0.442 0.442 0.442 0.443 0.443 0.443 0.443 0.443 0.444 0.444 0.444 0.444 0.444 0.444 0.444 0.443 0.443 0.443 0.443 0.443 0.443 0.443 0.444 0.444 0.444 0.445 0.445 0.446 0.446 0.447 0.448 0.448 0.449 0.449 0.449 0.45 0.45 0.45 0.45 0.45 0.45 0.45 0.45 0.45 0.45 0.45 0.45 0.45 0.45 0.45 0.45 0.45 0.45 0.451 0.451 0.451 0.452 0.452 0.452 0.452 0.452 0.452 0.452 0.452 0.452 0.452 0.452 0.452 0.452 0.452 0.452 0.452 0.452 0.452 0.452 0.452 0.452 0.452 0.452 0.452 0.452 0.452 0.452 0.453 0.453 0.453 0.454 0.454 0.454 0.454 0.455 0.455 0.455 0.455 0.455 0.455 0.455 0.455 0.455 0.455 0.455 0.455 0.455 0.455 0.455 0.455 0.455 0.456 0.456 0.456 0.456 0.456 0.456 0.456 0.456 0.456 0.456 0.456 0.456 0.456 0.456 0.456 0.456 0.456 0.456 0.456 0.456 0.455 0.455 0.455 0.455 0.455 0.455 0.455 0.449 0.449 0 0.408 0.407 0.407 0.407 0.408 0.407 0.407 0.408 0.408 0.407 0.407 0.407 0.407 0.407 0.407 0.407 0.407 0.407 0.407 0.407 0.407 0.407 0.407 0.407 0.407 0.407 0.407 0.407 0.407 0.407 0.407 0.407 0.407 0.407 0.408 0.408 0.408 0.408 0.409 0.409 0.409 0.409 0.41 0.41 0.411 0.411 0.411 0.411 0.411 0.412 0.412 0.412 0.412 0.412 0.412 0.412 0.412 0.412 0.412 0.412 0.412 0.412 0.412 0.412 0.412 0.413 0.413 0.413 0.413 0.413 0.413 0.413 0.413 0.413 0.413 0.413 0.413 0.413 0.413 0.413 0.413 0.413 0.413 0.413 0.413 0.413 0.413 0.413 0.413 0.413 0.413 0.413 0.413 0.413 0.414 0.414 0.414 0 0 0 0 0.48 0.48 0.48 0.479 0.479 0.479 0.478 0.478 0.477 0.477 0.477 0.476 0.475 0.475 0.475 0.476 0.476 0.476 0.476 0.476 0.477 0.478 0.478 0.479 0.479 0.479 0.48 0.48 0.48 0.48 0.48 0.48 0.48 0.479 0.479 0.479 0.478 0.478 0.478 0.478 0.478 0.478 0.478 0.478 0.479 0.479 0.479 0.48 0.48 0.48 0 0 0 0 0.48 0.48 0.478 0.478 0 0 0 0 0 0 0 0 0 0 0.482 0.482 0.482 0.483 0.483 0.484 0.484 0.484 0.484 0.485 0.485 0.485 0.485 0.485 0.485 0.485 0.485 0.485 0.484 0.484 0.484 0.484 0.484 0.484 0.484 0 0 0 0 0 0 0 0 0 0 0 0 0 0 0 0 0 0 0 0 0 0 0 0.241 0.241 0.241 0.241 0.241 0.241 0.241 0.241 0.241 0.241 0.241 0.24 0.24 0.24 0 0 0 0 0 0 0 0 0 0 0 0 0 0 0 0 0 0 0 0 0 0 0 0 0 0 0 0 0 0 0 0 0 0 0 0 0 0 0 0 0 0 0 0 0 0 0 0 0 0 0
0.436 0.436 0.436 0.437 0.437 0.437 0.438 0.438 0.438 0.439 0.439 0.439 0.439 0.439 0.439 0.439 0.439 0.439 0.439 0.439 0.439 0.44 0.44 0.44 0.44 0.44 0.44 0.44 0.44 0.44 0.44 0.44 0.44 0.44 0.44 0.44 0.44 0.44 0.44 0.44 0.441 0.441 0.441 0.441 0.441 0.442 0.442 0.442 0.443 0.443 0.442 0.442 0.442 0.442 0.442 0.442 0.442 0.442 0.442 0.442 0.442 0.442 0.442 0.442 0.443 0.443 0.443 0.443 0.443 0.444 0.444 0.444 0.444 0.444 0.444 0.444 0.443 0.443 0.443 0.443 0.443 0.443 0.444 0.444 0.444 0.445 0.446 0.446 0.446 0.446 0.447 0.448 0.448 0.449 0.449 0.45 0.45 0.45 0.45 0.45 0.45 0.45 0.45 0.45 0.45 0.45 0.45 0.45 0.45 0.45 0.45 0.45 0.45 0.45 0.451 0.451 0.451 0.451 0.451 0.451 0.451 0.451 0.451 0.452 0.452 0.452 0.452 0.452 0.452 0.452 0.452 0.452 0.452 0.452 0.452 0.452 0.452 0.452 0.452 0.452 0.452 0.452 0.452 0.452 0.453 0.453 0.453 0.454 0.454 0.454 0.454 0.454 0.455 0.455 0.455 0.455 0.455 0.455 0.455 0.455 0.455 0.455 0.455 0.455 0.455 0.455 0.455 0.455 0.456 0.456 0.456 0.456 0.456 0.456 0.456 0.456 0.456 0.456 0.456 0.456 0.456 0.456 0.456 0.456 0.456 0.456 0.456 0.456 0.455 0.455 0.455 0.455 0.455 0.455 0.455 0.449 0.449 0 0.408 0.408 0.408 0.408 0.408 0.408 0.407 0.407 0.407 0.407 0.407 0.407 0.407 0.407 0.407 0.407 0.407 0.407 0.407 0.407 0.407 0.407 0.407 0.407 0.407 0.407 0.407 0.407 0.407 0.407 0.407 0.407 0.407 0.407 0.408 0.408 0.408 0.408 0.409 0.409 0.409 0.409 0.41 0.41 0.411 0.411 0.411 0.411 0.411 0.412 0.412 0.412 0.412 0.412 0.412 0.412 0.412 0.412 0.412 0.412 0.412 0.412 0.412 0.413 0.413 0.413 0.413 0.413 0.413 0.413 0.413 0.413 0.413 0.413 0.413 0.413 0.413 0.413 0.413 0.413 0.413 0.413 0.413 0.413 0.413 0.413 0.413 0.413 0.413 0.413 0.413 0.413 0.413 0.413 0.414 0.414 0.414 0 0 0 0 0.48 0.48 0.48 0.48 0.479 0.479 0.479 0.479 0.478 0.477 0.477 0.477 0.476 0.476 0.476 0.476 0.476 0.476 0.476 0.476 0.477 0.478 0.478 0.479 0.479 0.479 0.48 0.48 0.48 0.48 0.48 0.48 0.48 0.479 0.479 0.479 0.478 0.478 0.478 0.478 0.478 0.478 0.478 0.478 0.479 0.479 0.479 0.48 0.48 0.48 0 0 0 0 0.48 0.48 0.478 0.478 0.478 0.478 0 0 0 0 0.479 0.479 0 0 0.482 0.482 0.482 0.482 0.482 0.484 0.484 0.484 0.484 0.484 0.484 0.485 0.484 0.484 0.484 0.484 0.484 0.484 0.484 0.484 0.484 0.484 0.484 0.484 0.484 0 0 0 0 0 0 0 0 0 0 0 0 0 0 0 0 0 0 0 0 0 0 0 0 0 0.241 0.241 0 0.241 0.241 0.241 0.241 0.241 0.241 0.24 0.24 0.24 0 0 0 0 0 0 0 0 0 0 0 0 0 0 0 0 0 0 0 0 0 0 0 0 0 0 0 0 0 0 0 0 0 0 0 0 0 0 0 0 0 0 0 0 0 0 0 0 0 0 0
0.436 0.436 0.436 0.437 0.437 0.437 0.438 0.438 0.438 0.439 0.439 0.439 0.439 0.439 0.439 0.439 0.439 0.44 0.44 0.44 0.44 0.44 0.44 0.44 0.44 0.44 0.44 0.44 0.44 0.44 0.44 0.44 0.44 0.44 0.44 0.44 0.44 0.44 0.44 0.44 0.441 0.441 0.441 0.441 0.441 0.442 0.442 0.442 0.443 0.443 0.443 0.443 0.443 0.442 0.442 0.442 0.443 0.442 0.442 0.443 0.443 0.443 0.443 0.443 0.443 0.443 0.443 0.444 0.444 0.444 0.444 0.444 0.444 0.444 0.444 0.444 0.443 0.443 0.443 0.443 0.443 0.443 0.444 0.444 0.444 0.445 0.446 0.446 0.446 0.446 0.447 0.448 0.448 0.449 0.449 0.449 0.45 0.45 0.45 0.45 0.45 0.45 0.45 0.449 0.449 0.449 0.45 0.45 0.45 0.45 0.45 0.45 0.45 0.45 0.451 0.451 0.451 0.451 0.451 0.451 0.451 0.451 0.451 0.452 0.452 0.452 0.452 0.452 0.452 0.452 0.452 0.452 0.452 0.452 0.452 0.452 0.452 0.452 0.452 0.452 0.452 0.452 0.452 0.452 0.453 0.453 0.453 0.454 0.454 0.454 0.454 0.454 0.455 0.455 0.455 0.455 0.455 0.455 0.455 0.455 0.455 0.455 0.455 0.455 0.455 0.455 0.455 0.455 0.456 0.456 0.456 0.456 0.456 0.456 0.456 0.456 0.456 0.456 0.456 0.456 0.456 0.456 0.456 0.456 0.456 0.456 0.456 0.456 0.455 0.455 0.455 0.455 0.455 0.455 0.455 0.451 0.451 0 0 0.408 0.408 0.408 0.408 0.408 0.407 0.407 0.407 0.407 0.407 0.407 0.407 0.407 0.407 0.407 0.407 0.407 0.407 0.407 0.407 0.407 0.407 0.407 0.407 0.407 0.407 0.407 0.407 0.407 0.407 0.407 0.407 0.408 0.408 0.408 0.408 0.408 0.409 0.409 0.409 0.41 0.41 0.41 0.411 0.411 0.411 0.411 0.411 0.412 0.412 0.412 0.412 0.412 0.412 0.412 0.412 0.412 0.412 0.412 0.412 0.412 0.412 0.412 0.412 0.413 0.413 0.413 0.413 0.413 0.413 0.413 0.413 0.413 0.413 0.413 0.413 0.413 0.413 0.413 0.413 0.413 0.413 0.413 0.413 0.413 0.413 0.413 0.413 0.413 0.413 0.413 0.413 0.413 0.413 0.414 0.414 0 0 0 0 0.48 0.48 0.48 0.48 0.479 0.479 0.479 0.479 0.478 0.477 0.477 0.477 0.476 0.476 0.476 0.476 0.476 0.476 0.476 0.476 0.477 0.477 0.478 0.479 0.479 0.479 0.48 0.48 0.48 0.48 0.48 0.48 0.479 0.479 0.479 0.479 0.478 0.478 0.478 0.478 0.478 0.478 0.478 0.478 0.479 0.48 0.48 0.48 0.48 0.48 0 0 0 0 0.48 0.48 0.479 0.478 0.478 0.478 0 0 0 0 0.479 0.479 0 0 0.482 0.482 0.482 0.482 0.482 0.484 0.484 0.484 0.484 0.484 0.484 0.485 0.484 0.484 0.484 0.484 0.484 0.484 0.484 0.484 0.484 0.484 0.484 0.484 0 0 0 0 0 0 0 0 0 0 0 0 0 0 0 0 0 0 0 0 0 0 0 0 0 0 0.241 0.241 0.241 0.241 0.241 0.241 0.241 0.241 0.241 0.24 0.24 0.24 0 0 0 0 0 0 0 0 0 0 0 0 0 0 0 0 0 0 0 0 0 0 0 0 0 0 0 0 0 0 0 0 0 0 0 0 0 0 0 0 0 0 0 0 0 0 0 0 0 0 0
0.435 0.436 0.436 0.436 0.436 0.437 0.437 0.437 0.438 0.439 0.439 0.439 0.439 0.439 0.439 0.439 0.439 0.44 0.44 0.44 0.44 0.44 0.44 0.44 0.44 0.44 0.44 0.44 0.44 0.44 0.44 0.44 0.44 0.44 0.44 0.44 0.44 0.44 0.44 0.44 0.441 0.441 0.441 0.442 0.442 0.442 0.443 0.443 0.443 0.443 0.443 0.443 0.443 0.443 0.443 0.443 0.443 0.443 0.443 0.443 0.443 0.443 0.443 0.443 0.443 0.443 0.444 0.444 0.444 0.444 0.444 0.444 0.444 0.444 0.444 0.444 0.444 0.443 0.443 0.443 0.444 0.444 0.444 0.444 0.444 0.445 0.446 0.446 0.446 0.446 0.447 0.448 0.448 0.449 0.449 0.449 0.45 0.45 0.45 0.45 0.45 0.45 0.449 0.449 0.449 0.449 0.449 0.449 0.449 0.45 0.45 0.45 0.45 0.45 0.45 0.451 0.451 0.451 0.451 0.451 0.451 0.451 0.451 0.451 0.451 0.451 0.451 0.452 0.452 0.452 0.452 0.452 0.452 0.452 0.452 0.452 0.452 0.452 0.452 0.452 0.452 0.452 0.452 0.452 0.453 0.453 0.453 0.454 0.454 0.454 0.454 0.454 0.455 0.455 0.455 0.455 0.455 0.455 0.455 0.455 0.455 0.455 0.455 0.455 0.455 0.455 0.455 0.456 0.456 0.456 0.456 0.456 0.456 0.456 0.456 0.456 0.456 0.456 0.456 0.456 0.456 0.456 0.456 0.456 0.456 0.456 0.456 0.456 0.455 0.455 0.455 0.455 0.455 0.455 0.455 0.455 0.455 0 0 0.408 0.408 0.408 0.408 0.408 0.407 0.407 0.407 0.407 0.407 0.407 0.407 0.407 0.407 0.407 0.406 0.406 0.407 0.407 0.407 0.407 0.407 0.407 0.407 0.407 0.407 0.407 0.407 0.407 0.407 0.407 0.407 0.408 0.408 0.408 0.409 0.409 0.409 0.409 0.409 0.41 0.41 0.41 0.411 0.411 0.411 0.411 0.411 0.412 0.412 0.412 0.412 0.412 0.412 0.412 0.412 0.412 0.412 0.412 0.412 0.412 0.412 0.412 0.412 0.413 0.413 0.413 0.413 0.413 0.413 0.413 0.413 0.413 0.413 0.413 0.413 0.413 0.413 0.413 0.413 0.413 0.413 0.413 0.413 0.413 0.413 0.413 0.413 0.413 0.413 0.413 0.414 0.413 0.413 0.414 0.414 0 0 0 0 0.481 0.48 0.48 0.48 0.48 0.48 0.479 0.479 0.479 0.478 0.478 0.477 0.477 0.477 0.477 0.477 0.477 0.477 0.477 0.477 0.477 0.477 0.478 0.478 0.478 0.479 0.479 0.479 0.48 0.48 0.479 0.479 0.479 0.479 0.479 0.478 0.478 0.478 0.478 0.478 0.478 0.478 0.478 0.478 0.479 0.479 0.48 0.48 0.48 0.48 0.48 0.48 0.48 0.48 0.48 0.48 0.479 0.478 0.478 0.478 0.478 0.478 0.478 0.478 0.478 0.479 0.48 0.48 0.481 0.482 0.482 0.482 0.482 0.483 0.483 0.483 0.483 0.484 0.484 0.484 0.484 0.484 0.484 0.484 0.484 0.484 0.484 0.484 0.484 0.484 0.484 0.484 0 0 0 0 0 0 0 0 0 0 0 0 0 0 0 0 0 0 0 0 0 0 0 0 0 0 0.241 0.241 0.241 0.241 0.241 0.241 0.241 0.241 0.241 0.24 0.24 0.24 0 0 0 0 0 0 0 0 0 0 0 0 0 0 0 0 0 0 0 0 0 0 0 0 0 0 0 0 0 0 0 0 0 0 0 0 0 0 0 0 0 0 0 0 0 0 0 0 0 0 0
0.435 0.436 0.436 0.436 0.436 0.437 0.437 0.437 0.438 0.438 0.438 0.439 0.439 0.439 0.439 0.439 0.439 0.439 0.439 0.44 0.44 0.44 0.44 0.44 0.44 0.44 0.44 0.44 0.44 0.44 0.44 0.44 0.44 0.44 0.44 0.44 0.44 0.44 0.44 0.44 0.441 0.441 0.441 0.442 0.442 0.442 0.443 0.443 0.443 0.443 0.443 0.443 0.443 0.443 0.443 0.443 0.443 0.443 0.443 0.443 0.443 0.443 0.443 0.443 0.443 0.443 0.444 0.444 0.444 0.444 0.444 0.444 0.444 0.444 0.444 0.444 0.444 0.443 0.443 0.443 0.444 0.444 0.444 0.444 0.444 0.445 0.446 0.446 0.447 0.447 0.447 0.448 0.448 0.449 0.449 0.449 0.45 0.45 0.45 0.45 0.45 0.45 0.449 0.449 0.449 0.449 0.449 0.449 0.449 0.45 0.45 0.45 0.45 0.45 0.45 0.451 0.451 0.451 0.451 0.451 0.451 0.451 0.451 0.451 0.451 0.451 0.451 0.451 0.452 0.452 0.452 0.452 0.452 0.452 0.452 0.452 0.452 0.452 0.452 0.452 0.452 0.452 0.452 0.452 0.453 0.453 0.453 0.453 0.454 0.454 0.454 0.454 0.455 0.455 0.455 0.455 0.455 0.455 0.455 0.455 0.455 0.455 0.455 0.455 0.455 0.455 0.455 0.455 0.456 0.456 0.456 0.456 0.456 0.456 0.456 0.456 0.456 0.456 0.456 0.456 0.456 0.456 0.456 0.456 0.456 0.456 0.456 0.456 0.455 0.455 0.455 0.455 0.455 0.455 0.455 0.455 0.455 0 0 0.409 0.409 0.408 0.408 0.408 0.407 0.407 0.407 0.407 0.407 0.407 0.407 0.406 0.406 0.406 0.406 0.406 0.407 0.407 0.407 0.407 0.407 0.407 0.407 0.407 0.407 0.407 0.407 0.407 0.407 0.408 0.408 0.408 0.408 0.408 0.409 0.409 0.409 0.409 0.409 0.41 0.41 0.41 0.411 0.411 0.411 0.411 0.411 0.412 0.412 0.412 0.412 0.412 0.412 0.412 0.412 0.412 0.412 0.412 0.412 0.412 0.412 0.412 0.412 0.413 0.413 0.413 0.413 0.413 0.413 0.413 0.413 0.414 0.414 0.414 0.414 0.413 0.413 0.413 0.413 0.413 0.413 0.413 0.413 0.413 0.413 0.413 0.413 0.413 0.413 0.413 0.414 0.414 0.414 0.414 0.414 0 0 0 0 0.481 0.481 0.481 0.48 0.48 0.48 0.48 0.48 0.479 0.479 0.479 0.478 0.478 0.478 0.477 0.477 0.477 0.477 0.477 0.477 0.477 0.477 0.478 0.478 0.478 0.479 0.479 0.479 0.48 0.48 0.479 0.479 0.479 0.479 0.479 0.478 0.478 0.478 0.478 0.478 0.478 0.478 0.478 0.478 0.479 0.479 0.48 0.48 0.48 0.48 0.48 0.48 0.48 0.48 0.48 0.48 0.479 0.479 0.479 0.478 0.478 0.478 0.478 0.478 0.478 0.479 0.48 0.48 0.48 0.48 0.481 0.482 0.482 0.482 0.482 0.482 0.482 0.483 0.483 0.483 0.483 0.483 0.484 0.484 0.484 0.484 0.484 0.484 0.484 0.484 0.484 0.484 0 0 0 0 0 0 0 0 0 0 0 0 0 0 0 0 0 0 0 0 0 0 0 0 0 0 0.241 0.241 0.241 0.241 0.241 0.241 0.241 0.241 0.241 0.24 0.24 0.24 0 0 0 0 0 0 0 0 0 0 0 0 0 0 0 0 0 0 0 0 0 0 0 0 0 0 0 0 0 0 0 0 0 0 0 0 0 0 0 0 0 0 0 0 0 0 0 0 0 0 0
0.435 0.435 0.435 0.436 0.436 0.437 0.437 0.437 0.438 0.438 0.438 0.439 0.439 0.439 0.439 0.439 0.439 0.439 0.439 0.44 0.44 0.44 0.44 0.44 0.44 0.44 0.44 0.44 0.44 0.44 0.44 0.44 0.44 0.44 0.44 0.44 0.44 0.44 0.44 0.44 0.441 0.441 0.441 0.442 0.442 0.442 0.443 0.443 0.443 0.443 0.443 0.443 0.443 0.443 0.443 0.443 0.443 0.443 0.443 0.443 0.443 0.443 0.443 0.443 0.443 0.443 0.444 0.444 0.444 0.444 0.444 0.444 0.444 0.444 0.444 0.444 0.444 0.444 0.444 0.444 0.444 0.444 0.444 0.445 0.445 0.445 0.446 0.446 0.447 0.447 0.447 0.448 0.448 0.449 0.449 0.449 0.449 0.449 0.45 0.45 0.449 0.449 0.449 0.449 0.449 0.449 0.449 0.449 0.449 0.449 0.449 0.45 0.45 0.45 0.45 0.45 0.45 0.451 0.451 0.451 0.451 0.451 0.451 0.451 0.451 0.451 0.451 0.451 0.452 0.452 0.452 0.452 0.452 0.452 0.452 0.452 0.452 0.452 0.452 0.452 0.452 0.452 0.452 0.452 0.453 0.453 0.453 0.453 0.454 0.454 0.454 0.454 0.455 0.455 0.455 0.455 0.455 0.455 0.455 0.455 0.455 0.455 0.455 0.455 0.455 0.455 0.455 0.455 0.456 0.456 0.456 0.456 0.456 0.456 0.456 0.456 0.456 0.456 0.456 0.456 0.456 0.456 0.456 0.456 0.456 0.456 0.456 0.456 0.456 0.456 0.456 0.455 0.455 0.455 0.455 0.455 0.455 0 0 0.409 0.409 0.409 0.409 0.408 0.408 0.408 0.408 0.407 0.407 0.407 0.407 0.406 0.406 0.406 0.406 0.406 0.407 0.407 0.407 0.407 0.407 0.407 0.407 0.407 0.407 0.407 0.407 0.407 0.408 0.408 0.408 0.408 0.409 0.409 0.409 0.409 0.409 0.409 0.409 0.41 0.41 0.41 0.411 0.411 0.411 0.411 0.411 0.412 0.412 0.412 0.412 0.412 0.412 0.412 0.412 0.412 0.412 0.412 0.412 0.412 0.412 0.412 0.412 0.412 0.412 0.412 0.413 0.413 0.413 0.413 0.413 0.413 0.413 0.414 0.414 0.413 0.413 0.413 0.413 0.413 0.413 0.413 0.413 0.413 0.413 0.413 0.413 0.413 0.413 0.413 0.414 0.414 0.414 0.414 0.414 0 0 0 0 0.481 0.481 0.481 0.48 0.48 0.48 0.48 0.48 0.479 0.479 0.479 0.478 0.478 0.478 0.477 0.477 0.477 0.477 0.477 0.477 0.477 0.477 0.478 0.478 0.478 0.479 0.479 0.479 0.479 0.479 0.479 0.479 0.479 0.478 0.478 0.478 0.478 0.478 0.478 0.478 0.478 0.478 0.478 0.478 0.479 0.479 0.479 0.48 0.48 0.48 0.48 0.48 0.48 0.48 0.48 0.48 0.479 0.479 0.479 0.478 0.478 0.478 0.478 0.478 0.478 0.479 0.48 0.48 0.48 0.48 0.481 0.482 0.482 0.482 0.482 0.482 0.482 0.483 0.483 0.483 0.483 0.483 0.484 0.484 0.484 0.484 0.484 0.484 0.484 0.484 0.485 0.485 0 0 0 0 0 0 0 0 0 0 0 0 0 0 0 0 0 0 0 0 0 0 0 0 0 0 0.241 0.241 0.241 0.241 0.241 0.241 0.241 0.241 0.241 0.241 0.241 0.241 0 0 0 0 0 0 0 0 0 0 0 0 0 0 0 0 0 0 0 0 0 0 0 0 0 0 0 0 0 0 0 0 0 0 0 0 0 0 0 0 0 0 0 0 0 0 0 0 0 0 0
0.435 0.435 0.435 0.436 0.436 0.437 0.437 0.437 0.438 0.438 0.438 0.439 0.439 0.439 0.439 0.439 0.439 0.439 0.439 0.44 0.44 0.44 0.44 0.44 0.44 0.44 0.44 0.44 0.44 0.44 0.44 0.44 0.44 0.44 0.44 0.44 0.44 0.44 0.44 0.44 0.441 0.441 0.441 0.442 0.442 0.442 0.443 0.443 0.443 0.443 0.443 0.443 0.443 0.443 0.443 0.443 0.443 0.443 0.443 0.443 0.443 0.443 0.443 0.443 0.443 0.443 0.444 0.444 0.444 0.444 0.444 0.444 0.444 0.444 0.444 0.444 0.444 0.444 0.444 0.444 0.444 0.444 0.445 0.445 0.445 0.446 0.446 0.446 0.447 0.447 0.447 0.448 0.448 0.449 0.449 0.449 0.449 0.449 0.449 0.449 0.449 0.449 0.449 0.449 0.449 0.449 0.449 0.449 0.449 0.449 0.449 0.45 0.45 0.45 0.45 0.45 0.45 0.45 0.45 0.451 0.451 0.451 0.451 0.451 0.451 0.451 0.451 0.451 0.452 0.451 0.451 0.452 0.452 0.452 0.452 0.452 0.452 0.452 0.452 0.452 0.452 0.452 0.452 0.452 0.453 0.453 0.453 0.453 0.454 0.454 0.454 0.454 0.454 0.454 0.454 0.454 0.454 0.454 0.454 0.454 0.454 0.454 0.455 0.455 0.455 0.455 0.455 0.455 0.455 0.455 0.456 0.456 0.456 0.456 0.456 0.456 0.456 0.456 0.456 0.456 0.456 0.456 0.456 0.456 0.456 0.456 0.456 0.456 0.456 0.456 0.456 0.455 0.455 0.455 0.455 0.455 0.455 0 0 0.409 0.409 0.409 0.409 0.408 0.408 0.408 0.408 0.407 0.407 0.407 0.407 0.406 0.406 0.406 0.406 0.406 0.406 0.406 0.407 0.407 0.407 0.407 0.407 0.407 0.407 0.407 0.407 0.407 0.408 0.408 0.408 0.408 0.409 0.409 0.409 0.409 0.409 0.409 0.409 0.41 0.41 0.41 0.411 0.411 0.411 0.411 0.411 0.412 0.412 0.412 0.412 0.412 0.412 0.412 0.412 0.412 0.412 0.412 0.412 0.412 0.412 0.412 0.412 0.412 0.412 0.412 0.413 0.413 0.413 0.413 0.413 0.413 0.413 0.414 0.414 0.413 0.413 0.413 0.413 0.413 0.413 0.413 0.413 0.413 0.413 0.414 0.414 0.414 0.414 0.414 0.414 0.414 0.414 0.414 0.414 0.414 0.414 0 0 0 0.481 0.481 0.481 0.481 0.48 0.48 0.48 0.48 0.48 0.48 0.479 0.479 0.479 0.478 0.478 0.478 0.478 0.478 0.478 0.478 0.478 0.478 0.479 0.479 0.479 0.479 0.479 0.479 0.479 0.479 0.479 0.478 0.478 0.478 0.478 0.478 0.478 0.478 0.478 0.478 0.478 0.479 0.479 0.479 0.479 0.479 0.48 0.48 0.48 0.48 0.48 0.48 0.48 0.48 0.48 0.48 0.479 0.479 0.479 0.479 0.479 0.479 0.479 0.479 0.479 0.48 0.48 0.48 0.48 0.48 0.48 0.48 0.481 0.481 0.481 0.482 0.482 0.482 0.482 0.482 0.482 0.482 0.482 0.483 0.483 0.483 0.484 0.484 0.484 0.484 0.484 0 0 0 0 0 0 0 0 0 0 0 0 0 0 0 0 0 0 0 0 0 0 0 0 0 0 0.241 0.241 0.241 0.241 0.241 0.241 0.241 0.241 0.241 0.241 0.241 0.241 0 0 0 0 0 0 0 0 0 0 0 0 0 0 0 0 0 0 0 0 0 0 0 0 0 0 0 0 0 0 0 0 0 0 0 0 0 0 0 0 0 0 0 0 0 0 0 0 0 0 0
0.435 0.435 0.435 0.436 0.436 0.437 0.437 0.437 0.438 0.438 0.438 0.439 0.439 0.439 0.439 0.439 0.439 0.439 0.439 0.44 0.44 0.44 0.44 0.44 0.44 0.44 0.44 0.44 0.44 0.44 0.44 0.44 0.44 0.44 0.44 0.44 0.44 0.44 0.441 0.441 0.441 0.441 0.441 0.442 0.442 0.442 0.443 0.443 0.443 0.443 0.443 0.443 0.443 0.443 0.443 0.443 0.443 0.443 0.443 0.443 0.443 0.443 0.443 0.443 0.443 0.443 0.443 0.443 0.443 0.444 0.444 0.444 0.444 0.444 0.444 0.444 0.444 0.444 0.444 0.444 0.444 0.444 0.445 0.445 0.445 0.446 0.446 0.446 0.447 0.447 0.447 0.448 0.448 0.449 0.449 0.449 0.449 0.449 0.449 0.449 0.449 0.449 0.449 0.449 0.449 0.449 0.449 0.449 0.449 0.449 0.449 0.45 0.45 0.45 0.45 0.45 0.45 0.45 0.45 0.451 0.451 0.451 0.451 0.451 0.451 0.451 0.451 0.451 0.452 0.451 0.451 0.452 0.452 0.452 0.452 0.452 0.452 0.452 0.452 0.452 0.452 0.452 0.452 0.452 0.453 0.453 0.453 0.453 0.454 0.454 0.454 0.454 0.454 0.454 0.454 0.454 0.454 0.454 0.454 0.454 0.454 0.454 0.454 0.454 0.454 0.455 0.455 0.455 0.455 0.455 0.456 0.456 0.456 0.456 0.456 0.456 0.456 0.456 0.456 0.456 0.456 0.456 0.456 0.456 0.456 0.456 0.456 0.456 0.456 0.456 0.455 0.455 0.455 0.455 0.455 0.446 0.446 0 0 0.41 0.41 0.41 0.411 0.408 0.408 0.408 0.408 0.407 0.407 0.407 0.407 0.406 0.406 0.406 0.406 0.406 0.406 0.406 0.407 0.407 0.407 0.407 0.407 0.407 0.407 0.407 0.407 0.407 0.408 0.408 0.408 0.409 0.409 0.409 0.409 0.409 0.41 0.41 0.41 0.41 0.41 0.411 0.411 0.411 0.411 0.411 0.411 0.412 0.412 0.412 0.412 0.412 0.412 0.412 0.412 0.412 0.412 0.412 0.412 0.412 0.412 0.412 0.412 0.412 0.412 0.412 0.413 0.413 0.413 0.413 0.413 0.413 0.413 0.413 0.413 0.413 0.413 0.413 0.413 0.413 0.413 0.413 0.413 0.413 0.413 0.414 0.414 0.414 0.414 0.414 0.414 0.414 0.414 0.414 0.414 0.414 0.414 0 0 0 0.481 0.481 0.481 0.481 0.48 0.48 0.48 0.48 0.48 0.48 0.479 0.479 0.479 0.478 0.478 0.478 0.478 0.479 0.479 0.479 0.478 0.478 0.479 0.479 0.479 0.479 0.479 0.479 0.479 0.479 0.479 0.478 0.478 0.478 0.478 0.478 0.478 0.478 0.478 0.478 0.478 0.479 0.479 0.479 0.479 0.48 0.48 0.48 0.48 0.48 0.48 0.48 0.48 0.48 0.48 0.48 0.479 0.479 0.479 0.479 0.479 0.479 0.479 0.479 0.48 0.48 0.48 0.48 0.48 0.48 0.48 0.48 0.481 0.481 0.481 0.482 0.481 0.481 0.481 0.481 0.481 0.481 0.481 0.482 0.482 0.482 0.483 0.483 0.483 0.484 0.484 0 0 0 0 0 0 0 0 0 0 0 0 0 0 0 0 0 0 0 0 0 0 0 0 0 0 0.241 0.241 0.241 0.241 0.241 0.241 0.241 0.241 0.241 0.241 0.241 0.241 0 0 0 0 0 0 0 0 0 0 0 0 0 0 0 0 0 0 0 0 0 0 0 0 0 0 0 0 0 0 0 0 0 0 0 0 0 0 0 0 0 0 0 0 0 0 0 0 0 0 0
0.434 0.435 0.435 0.435 0.435 0.436 0.437 0.437 0.437 0.438 0.438 0.438 0.438 0.439 0.439 0.439 0.439 0.439 0.439 0.439 0.439 0.44 0.44 0.44 0.44 0.44 0.44 0.44 0.44 0.44 0.44 0.44 0.44 0.44 0.44 0.44 0.44 0.44 0.441 0.441 0.441 0.441 0.442 0.442 0.442 0.442 0.443 0.443 0.443 0.443 0.443 0.443 0.443 0.443 0.443 0.443 0.443 0.443 0.443 0.443 0.443 0.443 0.443 0.443 0.443 0.443 0.443 0.443 0.443 0.444 0.444 0.444 0.444 0.444 0.444 0.444 0.444 0.444 0.445 0.445 0.445 0.445 0.445 0.445 0.445 0.446 0.446 0.446 0.447 0.447 0.447 0.448 0.448 0.449 0.449 0.449 0.449 0.449 0.449 0.449 0.449 0.449 0.449 0.449 0.449 0.449 0.449 0.449 0.449 0.449 0.449 0.45 0.45 0.45 0.45 0.45 0.45 0.45 0.45 0.45 0.45 0.45 0.451 0.451 0.451 0.451 0.451 0.451 0.451 0.451 0.451 0.452 0.452 0.452 0.452 0.452 0.452 0.452 0.452 0.452 0.452 0.452 0.452 0.453 0.453 0.453 0.454 0.454 0.454 0.454 0.454 0.454 0.454 0.454 0.454 0.454 0.454 0.454 0.454 0.454 0.454 0.454 0.454 0.454 0.454 0.455 0.455 0.455 0.455 0.455 0.456 0.456 0.456 0.456 0.456 0.456 0.456 0.456 0.456 0.456 0.456 0.456 0.456 0.456 0.456 0.456 0.456 0.456 0.456 0.456 0.455 0.455 0.455 0.455 0.455 0.446 0.446 0 0 0 0 0.412 0.412 0.408 0.408 0.408 0.408 0.407 0.407 0.406 0.406 0.406 0.406 0.406 0.406 0.406 0.406 0.406 0.406 0.406 0.407 0.407 0.407 0.407 0.407 0.408 0.408 0.408 0.408 0.409 0.409 0.409 0.409 0.409 0.409 0.409 0.41 0.41 0.41 0.411 0.411 0.411 0.411 0.411 0.411 0.411 0.411 0.412 0.412 0.412 0.412 0.412 0.412 0.412 0.412 0.412 0.412 0.412 0.412 0.412 0.412 0.412 0.412 0.412 0.412 0.412 0.413 0.413 0.413 0.413 0.413 0.413 0.413 0.413 0.413 0.413 0.414 0.414 0.414 0.414 0.414 0.413 0.413 0.413 0.413 0.414 0.414 0.414 0.414 0.414 0.414 0.414 0.414 0.414 0.414 0.414 0.414 0 0 0 0.481 0.481 0.481 0.481 0.481 0.481 0.481 0.48 0.48 0.48 0.48 0.48 0.479 0.479 0.479 0.479 0.479 0.479 0.479 0.479 0.478 0.478 0.479 0.479 0.479 0.479 0.479 0.479 0.479 0.478 0.478 0.478 0.478 0.478 0.478 0.478 0.478 0.478 0.478 0.478 0.478 0.479 0.479 0.479 0.479 0.48 0.48 0.48 0.48 0.48 0.48 0.48 0.48 0.48 0.48 0.48 0.479 0.479 0.479 0.479 0.479 0.479 0.479 0.479 0.48 0.48 0.48 0.48 0.48 0.48 0.48 0.48 0.48 0.48 0.48 0.48 0.48 0.481 0.481 0.481 0.481 0.481 0.481 0.482 0.482 0.482 0.483 0.483 0.483 0.484 0.484 0 0 0 0 0 0 0 0 0 0 0 0 0 0 0 0 0 0 0 0 0 0 0 0 0 0 0.241 0.241 0.241 0.241 0.241 0.241 0.241 0.241 0.241 0.241 0.241 0.241 0 0 0 0 0 0 0 0 0 0 0 0 0 0 0 0 0 0 0 0 0 0 0 0 0 0 0 0 0 0 0 0 0 0 0 0 0 0 0 0 0 0 0 0 0 0 0 0 0 0 0
0.434 0.435 0.435 0.435 0.435 0.436 0.437 0.437 0.437 0.437 0.437 0.438 0.438 0.438 0.439 0.439 0.439 0.439 0.439 0.439 0.439 0.44 0.44 0.44 0.44 0.44 0.44 0.44 0.44 0.44 0.44 0.44 0.44 0.44 0.44 0.44 0.44 0.44 0.441 0.441 0.441 0.441 0.442 0.442 0.442 0.442 0.443 0.443 0.443 0.443 0.443 0.443 0.443 0.443 0.443 0.443 0.443 0.443 0.443 0.443 0.442 0.442 0.443 0.443 0.443 0.443 0.443 0.443 0.443 0.444 0.444 0.444 0.444 0.444 0.445 0.445 0.445 0.445 0.445 0.445 0.445 0.445 0.445 0.446 0.446 0.446 0.446 0.446 0.447 0.447 0.447 0.448 0.448 0.449 0.449 0.449 0.449 0.449 0.449 0.449 0.449 0.449 0.449 0.449 0.449 0.449 0.449 0.449 0.449 0.449 0.449 0.449 0.449 0.449 0.45 0.45 0.45 0.45 0.45 0.45 0.45 0.45 0.45 0.45 0.45 0.45 0.45 0.451 0.451 0.451 0.451 0.451 0.452 0.452 0.452 0.452 0.452 0.452 0.452 0.452 0.452 0.452 0.452 0.453 0.453 0.453 0.454 0.454 0.454 0.454 0.454 0.454 0.454 0.454 0.454 0.454 0.454 0.454 0.454 0.454 0.454 0.454 0.454 0.454 0.454 0.455 0.455 0.455 0.455 0.455 0.455 0.455 0.456 0.456 0.456 0.456 0.456 0.456 0.456 0.456 0.456 0.456 0.456 0.456 0.456 0.456 0.456 0.456 0.455 0.455 0.455 0.455 0.455 0.455 0.455 0.444 0.444 0 0 0.413 0.413 0.412 0.412 0.408 0.408 0.408 0.408 0.407 0.407 0.406 0.406 0.406 0.406 0.406 0.406 0.406 0.406 0.406 0.406 0.406 0.407 0.407 0.407 0.407 0.407 0.408 0.408 0.408 0.408 0.409 0.409 0.409 0.409 0.409 0.409 0.409 0.41 0.41 0.41 0.411 0.411 0.411 0.411 0.411 0.411 0.411 0.411 0.412 0.412 0.412 0.412 0.412 0.412 0.412 0.412 0.412 0.412 0.412 0.412 0.412 0.412 0.412 0.412 0.412 0.412 0.412 0.413 0.413 0.413 0.413 0.413 0.413 0.413 0.413 0.414 0.414 0.414 0.414 0.414 0.414 0.414 0.414 0.414 0.414 0.414 0.414 0.414 0.414 0.414 0.414 0.414 0.414 0.414 0.414 0.414 0.415 0.415 0 0 0 0 0 0.482 0.482 0.482 0.482 0.482 0.481 0.481 0.481 0.48 0.48 0.48 0.48 0.48 0.48 0.479 0.479 0.479 0.479 0.479 0.479 0.479 0.479 0.479 0.479 0.479 0.479 0.479 0.478 0.478 0.478 0.478 0.478 0.478 0.478 0.478 0.478 0.478 0.478 0.478 0.479 0.479 0.479 0.479 0.48 0.48 0.48 0.481 0.481 0.481 0.481 0.481 0.481 0.481 0.48 0.48 0.48 0.48 0.48 0.48 0.48 0.48 0.48 0.48 0.48 0.48 0.48 0.48 0.479 0.479 0.479 0.479 0.479 0.479 0.479 0.479 0.479 0.479 0.479 0.48 0.48 0.48 0.481 0.481 0.482 0.482 0.482 0.483 0.484 0.484 0 0 0 0 0 0 0 0 0 0 0 0 0 0 0 0 0 0 0 0 0 0 0 0 0 0 0 0 0 0 0 0 0 0 0 0 0 0 0 0 0 0 0 0 0 0 0 0 0 0 0 0 0 0 0 0 0 0 0 0 0 0 0 0 0 0 0 0 0 0 0 0 0 0 0 0 0 0 0 0 0 0 0 0 0 0 0 0 0
0.434 0.435 0.435 0.435 0.435 0.436 0.437 0.437 0.437 0.437 0.437 0.438 0.438 0.438 0.439 0.439 0.439 0.439 0.439 0.439 0.439 0.44 0.44 0.44 0.44 0.44 0.44 0.44 0.44 0.44 0.44 0.44 0.44 0.44 0.44 0.44 0.44 0.441 0.441 0.441 0.442 0.442 0.442 0.442 0.442 0.442 0.443 0.443 0.443 0.443 0.443 0.443 0.443 0.443 0.443 0.443 0.443 0.443 0.443 0.443 0.442 0.442 0.443 0.443 0.443 0.443 0.443 0.443 0.443 0.444 0.444 0.444 0.444 0.444 0.445 0.445 0.445 0.445 0.445 0.445 0.445 0.445 0.445 0.446 0.446 0.446 0.446 0.446 0.447 0.447 0.447 0.448 0.448 0.448 0.448 0.449 0.449 0.449 0.449 0.449 0.449 0.449 0.449 0.449 0.449 0.449 0.449 0.449 0.449 0.449 0.449 0.449 0.449 0.449 0.45 0.45 0.45 0.45 0.45 0.45 0.45 0.45 0.45 0.45 0.45 0.45 0.45 0.451 0.451 0.451 0.451 0.451 0.452 0.452 0.452 0.452 0.452 0.452 0.453 0.452 0.452 0.453 0.453 0.453 0.453 0.453 0.454 0.454 0.454 0.454 0.454 0.454 0.454 0.454 0.454 0.454 0.454 0.454 0.454 0.454 0.454 0.454 0.454 0.454 0.454 0.455 0.455 0.455 0.455 0.455 0.455 0.455 0.455 0.456 0.456 0.456 0.456 0.456 0.456 0.456 0.456 0.456 0.456 0.456 0.456 0.456 0.456 0.456 0.455 0.455 0.455 0.455 0.455 0.455 0.455 0.444 0.444 0 0 0.413 0.413 0.412 0.412 0.409 0.408 0.408 0.408 0.407 0.407 0.406 0.406 0.406 0.406 0.406 0.406 0.406 0.406 0.406 0.406 0.406 0.407 0.407 0.407 0.407 0.407 0.408 0.408 0.408 0.409 0.409 0.409 0.409 0.409 0.409 0.41 0.41 0.41 0.41 0.41 0.411 0.411 0.411 0.411 0.411 0.411 0.411 0.411 0.412 0.412 0.412 0.412 0.412 0.412 0.412 0.412 0.412 0.412 0.412 0.412 0.412 0.412 0.412 0.412 0.412 0.412 0.412 0.413 0.413 0.413 0.413 0.413 0.413 0.413 0.413 0.414 0.414 0.413 0.413 0.413 0.414 0.414 0.414 0.414 0.414 0.414 0.414 0.414 0.414 0.414 0.414 0.414 0.414 0.414 0.414 0.414 0.415 0.415 0 0 0 0 0 0.482 0.482 0.482 0.482 0.482 0.481 0.481 0.481 0.48 0.48 0.48 0.48 0.48 0.48 0.479 0.479 0.479 0.479 0.479 0.479 0.479 0.479 0.478 0.478 0.478 0.479 0.478 0.478 0.478 0.478 0.478 0.478 0.478 0.478 0.478 0.478 0.478 0.478 0.479 0.479 0.479 0.48 0.48 0.48 0.481 0.481 0.481 0.482 0.482 0.482 0.482 0.482 0.482 0.481 0.481 0.481 0.481 0.481 0.481 0.481 0.481 0.481 0.48 0.48 0.48 0.48 0.48 0.479 0.479 0.479 0.479 0.479 0.479 0.479 0.479 0.479 0.479 0.479 0.48 0.48 0.48 0.481 0.481 0.482 0.482 0.482 0.483 0.484 0.484 0 0 0 0 0 0 0 0 0 0 0 0 0 0 0 0 0 0 0 0 0 0 0 0 0 0 0 0 0 0 0 0 0 0 0 0 0 0 0 0 0 0 0 0 0 0 0 0 0 0 0 0 0 0 0 0 0 0 0 0 0 0 0 0 0 0 0 0 0 0 0 0 0 0 0 0 0 0 0 0 0 0 0 0 0 0 0 0 0
0.434 0.435 0.435 0.435 0.435 0.435 0.436 0.436 0.437 0.437 0.437 0.438 0.438 0.438 0.438 0.438 0.439 0.439 0.439 0.439 0.439 0.44 0.44 0.44 0.44 0.44 0.44 0.44 0.44 0.44 0.44 0.44 0.44 0.44 0.44 0.44 0.44 0.441 0.441 0.441 0.442 0.442 0.442 0.442 0.442 0.443 0.443 0.443 0.443 0.443 0.443 0.443 0.443 0.443 0.443 0.443 0.443 0.443 0.443 0.443 0.442 0.442 0.443 0.443 0.443 0.443 0.443 0.443 0.443 0.444 0.444 0.444 0.444 0.444 0.445 0.445 0.445 0.445 0.445 0.445 0.445 0.445 0.446 0.446 0.446 0.446 0.446 0.446 0.447 0.447 0.447 0.448 0.448 0.448 0.448 0.448 0.449 0.449 0.449 0.449 0.449 0.449 0.448 0.448 0.448 0.448 0.449 0.449 0.449 0.449 0.449 0.449 0.449 0.449 0.449 0.449 0.449 0.45 0.45 0.45 0.45 0.45 0.45 0.45 0.45 0.45 0.45 0.451 0.451 0.451 0.451 0.451 0.452 0.452 0.452 0.452 0.452 0.452 0.453 0.452 0.452 0.453 0.453 0.453 0.453 0.453 0.454 0.454 0.454 0.454 0.454 0.454 0.454 0.454 0.454 0.454 0.454 0.454 0.454 0.454 0.454 0.454 0.454 0.454 0.454 0.455 0.455 0.455 0.455 0.455 0.455 0.455 0.455 0.456 0.456 0.456 0.456 0.456 0.456 0.456 0.456 0.456 0.456 0.456 0.456 0.456 0.456 0.456 0.455 0.455 0.455 0.455 0.455 0.455 0.455 0.443 0.443 0 0 0.412 0.412 0.412 0.412 0.409 0.408 0.408 0.408 0.407 0.407 0.406 0.406 0.406 0.406 0.406 0.406 0.406 0.406 0.406 0.406 0.406 0.407 0.407 0.407 0.407 0.407 0.408 0.408 0.408 0.409 0.409 0.409 0.409 0.409 0.41 0.41 0.41 0.41 0.41 0.41 0.411 0.411 0.411 0.411 0.411 0.411 0.411 0.411 0.412 0.412 0.412 0.412 0.412 0.412 0.412 0.412 0.412 0.412 0.412 0.412 0.412 0.412 0.412 0.412 0.412 0.412 0.413 0.413 0.413 0.413 0.413 0.413 0.413 0.413 0.413 0.413 0.413 0.413 0.413 0.413 0.414 0.414 0.414 0.414 0.414 0.414 0.414 0.414 0.414 0.414 0.414 0.414 0.414 0.414 0.414 0.414 0.415 0.415 0 0 0 0 0 0.483 0.483 0.482 0.482 0.482 0.482 0.482 0.482 0.481 0.481 0.481 0.481 0.481 0.48 0.48 0.48 0.479 0.479 0.479 0.479 0.479 0.478 0.478 0.478 0.478 0.478 0.478 0.478 0.478 0.477 0.477 0.478 0.478 0.478 0.478 0.478 0.478 0.478 0.479 0.479 0.479 0.48 0.48 0.48 0.481 0.481 0.481 0.482 0.482 0.482 0.482 0.482 0.482 0.481 0.481 0.481 0.481 0.481 0.481 0.481 0.481 0.481 0.48 0.48 0.48 0.48 0.479 0.479 0.479 0.478 0.478 0.478 0.477 0.477 0.477 0.477 0.477 0.477 0.478 0.479 0.479 0.48 0.48 0.481 0.482 0.482 0.483 0.484 0.484 0 0 0 0 0 0 0 0 0 0 0 0 0 0 0 0 0 0 0 0 0 0 0 0 0 0 0 0 0 0 0 0 0 0 0 0 0 0 0 0 0 0 0 0 0 0 0 0 0 0 0 0 0 0 0 0 0 0 0 0 0 0 0 0 0 0 0 0 0 0 0 0 0 0 0 0 0 0 0 0 0 0 0 0 0 0 0 0 0
0.434 0.435 0.435 0.435 0.435 0.435 0.436 0.436 0.437 0.437 0.437 0.438 0.438 0.438 0.438 0.438 0.438 0.439 0.439 0.439 0.439 0.44 0.44 0.44 0.44 0.44 0.44 0.44 0.44 0.441 0.441 0.441 0.44 0.44 0.44 0.441 0.441 0.441 0.441 0.441 0.442 0.442 0.442 0.442 0.442 0.443 0.443 0.443 0.443 0.443 0.443 0.443 0.443 0.443 0.443 0.443 0.443 0.442 0.442 0.442 0.442 0.442 0.442 0.442 0.442 0.442 0.443 0.443 0.443 0.443 0.444 0.444 0.444 0.444 0.445 0.445 0.445 0.445 0.445 0.445 0.445 0.445 0.446 0.446 0.446 0.446 0.446 0.446 0.447 0.447 0.447 0.448 0.448 0.448 0.448 0.448 0.449 0.449 0.449 0.449 0.449 0.449 0.448 0.448 0.448 0.448 0.449 0.449 0.449 0.449 0.449 0.449 0.449 0.449 0.449 0.449 0.449 0.45 0.45 0.45 0.45 0.45 0.45 0.45 0.45 0.45 0.45 0.451 0.451 0.451 0.451 0.451 0.452 0.452 0.452 0.452 0.453 0.453 0.453 0.453 0.453 0.453 0.453 0.453 0.453 0.453 0.454 0.454 0.454 0.454 0.454 0.454 0.454 0.454 0.454 0.454 0.454 0.454 0.454 0.454 0.454 0.454 0.454 0.454 0.454 0.454 0.454 0.455 0.455 0.455 0.455 0.455 0.455 0.456 0.456 0.456 0.456 0.456 0.456 0.456 0.456 0.456 0.456 0.456 0.456 0.456 0.456 0.456 0.455 0.455 0.455 0.455 0.455 0.455 0.455 0.443 0.443 0 0 0.412 0.412 0.412 0.412 0.409 0.408 0.408 0.407 0.407 0.407 0.406 0.406 0.406 0.406 0.406 0.406 0.406 0.406 0.406 0.406 0.406 0.407 0.407 0.407 0.408 0.408 0.408 0.409 0.409 0.409 0.409 0.409 0.409 0.409 0.41 0.41 0.41 0.41 0.41 0.41 0.411 0.411 0.411 0.411 0.411 0.411 0.411 0.411 0.412 0.412 0.411 0.411 0.411 0.411 0.412 0.412 0.412 0.412 0.412 0.412 0.412 0.412 0.412 0.412 0.412 0.412 0.412 0.413 0.413 0.413 0.413 0.413 0.413 0.413 0.413 0.413 0.413 0.413 0.413 0.413 0.414 0.414 0.414 0.414 0.414 0.414 0.414 0.414 0.414 0.414 0.414 0.414 0.414 0.414 0.414 0.414 0.415 0.415 0 0 0 0 0 0.483 0.483 0.483 0.482 0.482 0.482 0.482 0.482 0.482 0.482 0.482 0.482 0.482 0.481 0.48 0.48 0.48 0.48 0.479 0.479 0.479 0.478 0.478 0.478 0.478 0.478 0.478 0.478 0.478 0.477 0.477 0.478 0.478 0.478 0.478 0.478 0.479 0.479 0.479 0.479 0.479 0.48 0.48 0.48 0.481 0.481 0.481 0.482 0.482 0.482 0.482 0.482 0.482 0.482 0.482 0.482 0.482 0.482 0.482 0.482 0.482 0.482 0.481 0.481 0.48 0.48 0.479 0.478 0.478 0.477 0.477 0.477 0.476 0.476 0.476 0.476 0.476 0.476 0.477 0.477 0.477 0.479 0.479 0.48 0.482 0.482 0.483 0.484 0.484 0 0 0 0 0 0 0 0 0 0 0 0 0 0 0 0 0 0 0 0 0 0 0 0 0 0 0 0 0 0 0 0 0 0 0 0 0 0 0 0 0 0 0 0 0 0 0 0 0 0 0 0 0 0 0 0 0 0 0 0 0 0 0 0 0 0 0 0 0 0 0 0 0 0 0 0 0 0 0 0 0 0 0 0 0 0 0 0 0
0.434 0.435 0.435 0.435 0.435 0.435 0.436 0.436 0.437 0.437 0.437 0.437 0.437 0.438 0.438 0.438 0.438 0.439 0.439 0.439 0.439 0.44 0.44 0.44 0.44 0.44 0.44 0.44 0.44 0.441 0.441 0.441 0.441 0.441 0.441 0.441 0.441 0.441 0.441 0.441 0.442 0.442 0.442 0.442 0.442 0.443 0.443 0.443 0.443 0.443 0.443 0.443 0.443 0.443 0.443 0.442 0.442 0.442 0.442 0.442 0.442 0.442 0.442 0.442 0.442 0.442 0.442 0.443 0.443 0.443 0.444 0.444 0.444 0.444 0.445 0.445 0.445 0.445 0.445 0.445 0.445 0.445 0.446 0.446 0.446 0.446 0.446 0.446 0.447 0.447 0.447 0.448 0.448 0.448 0.448 0.448 0.448 0.448 0.448 0.448 0.448 0.448 0.448 0.448 0.448 0.448 0.448 0.449 0.449 0.449 0.449 0.449 0.449 0.449 0.449 0.449 0.449 0.449 0.449 0.45 0.45 0.45 0.45 0.45 0.45 0.45 0.45 0.451 0.451 0.451 0.451 0.451 0.452 0.452 0.452 0.452 0.453 0.453 0.453 0.453 0.453 0.453 0.453 0.453 0.454 0.454 0.454 0.454 0.454 0.454 0.454 0.454 0.454 0.454 0.454 0.454 0.454 0.454 0.454 0.454 0.454 0.454 0.454 0.454 0.454 0.454 0.454 0.455 0.455 0.455 0.455 0.455 0.456 0.456 0.456 0.456 0.456 0.456 0.456 0.456 0.456 0.456 0.456 0.456 0.456 0.456 0.456 0.456 0.455 0.455 0.455 0.455 0.455 0.455 0.455 0.446 0.446 0 0 0.413 0.413 0.412 0.412 0.409 0.408 0.408 0.407 0.407 0.407 0.406 0.406 0.406 0.406 0.406 0.406 0.406 0.406 0.406 0.406 0.406 0.407 0.407 0.407 0.408 0.408 0.409 0.409 0.409 0.409 0.409 0.409 0.41 0.41 0.41 0.41 0.41 0.411 0.411 0.411 0.411 0.411 0.411 0.411 0.411 0.411 0.412 0.412 0.412 0.412 0.411 0.411 0.411 0.411 0.411 0.411 0.411 0.411 0.412 0.412 0.412 0.412 0.412 0.412 0.412 0.412 0.412 0.413 0.413 0.413 0.413 0.413 0.413 0.413 0.413 0.413 0.413 0.413 0.413 0.413 0.414 0.414 0.414 0.414 0.414 0.414 0.414 0.414 0.414 0.414 0.414 0.414 0.414 0.414 0.414 0.414 0.415 0.415 0 0 0 0.483 0.483 0.483 0.483 0.483 0.482 0.482 0.482 0.482 0.482 0.482 0.482 0.482 0.482 0.482 0.481 0.48 0.48 0.48 0.48 0.479 0.479 0.479 0.478 0.477 0.477 0.477 0.478 0.477 0.477 0.477 0.477 0.477 0.477 0.477 0.478 0.478 0.478 0.479 0.479 0.479 0.479 0.479 0.48 0.48 0.48 0.481 0.481 0.482 0.482 0.482 0.482 0.482 0.482 0.482 0.482 0.482 0.482 0.482 0.482 0.482 0.482 0.483 0.482 0.482 0.482 0.48 0.48 0.479 0.478 0.478 0.477 0.477 0.477 0.476 0.476 0.476 0.476 0.476 0.476 0.477 0.477 0.477 0.479 0.479 0.48 0.482 0.482 0.483 0 0 0 0 0 0 0 0 0 0 0 0 0 0 0 0 0 0 0 0 0 0 0 0 0 0 0 0 0 0 0 0 0 0 0 0 0 0 0 0 0 0 0 0 0 0 0 0 0 0 0 0 0 0 0 0 0 0 0 0 0 0 0 0 0 0 0 0 0 0 0 0 0 0 0 0 0 0 0 0 0 0 0 0 0 0 0 0 0 0 0
0.434 0.435 0.435 0.435 0.435 0.435 0.436 0.436 0.437 0.437 0.437 0.437 0.437 0.437 0.438 0.438 0.438 0.438 0.438 0.439 0.439 0.439 0.44 0.44 0.44 0.44 0.44 0.44 0.44 0.441 0.441 0.441 0.441 0.441 0.441 0.441 0.441 0.441 0.441 0.441 0.442 0.442 0.442 0.442 0.442 0.443 0.443 0.443 0.443 0.443 0.443 0.443 0.443 0.443 0.443 0.442 0.442 0.442 0.442 0.442 0.442 0.442 0.442 0.442 0.442 0.442 0.442 0.443 0.443 0.443 0.444 0.444 0.444 0.444 0.445 0.445 0.445 0.445 0.445 0.445 0.446 0.446 0.446 0.446 0.446 0.446 0.446 0.447 0.447 0.447 0.447 0.448 0.448 0.448 0.448 0.448 0.448 0.448 0.448 0.448 0.448 0.448 0.448 0.448 0.448 0.448 0.448 0.449 0.449 0.449 0.449 0.449 0.449 0.449 0.449 0.449 0.449 0.449 0.449 0.45 0.45 0.45 0.45 0.45 0.45 0.45 0.45 0.451 0.451 0.451 0.451 0.451 0.452 0.452 0.452 0.452 0.453 0.453 0.453 0.453 0.453 0.453 0.453 0.453 0.454 0.454 0.454 0.454 0.454 0.454 0.454 0.454 0.454 0.454 0.454 0.454 0.454 0.454 0.454 0.454 0.454 0.454 0.454 0.454 0.454 0.454 0.454 0.455 0.455 0.455 0.455 0.455 0.456 0.456 0.456 0.456 0.456 0.456 0.456 0.456 0.456 0.456 0.456 0.456 0.456 0.456 0.456 0.456 0.456 0.456 0.455 0.455 0.455 0.455 0.455 0.446 0.434 0.434 0.434 0.413 0.413 0.411 0.411 0.409 0.408 0.408 0.407 0.407 0.407 0.406 0.406 0.406 0.406 0.406 0.406 0.406 0.406 0.406 0.406 0.406 0.407 0.407 0.407 0.408 0.408 0.408 0.409 0.409 0.409 0.409 0.409 0.41 0.41 0.41 0.41 0.41 0.411 0.411 0.411 0.411 0.411 0.411 0.411 0.411 0.412 0.412 0.412 0.412 0.412 0.411 0.411 0.411 0.411 0.411 0.411 0.411 0.411 0.412 0.412 0.412 0.412 0.412 0.412 0.412 0.412 0.412 0.413 0.413 0.413 0.413 0.413 0.413 0.413 0.413 0.413 0.413 0.414 0.414 0.414 0.414 0.414 0.414 0.414 0.414 0.414 0.414 0.414 0.414 0.414 0.414 0.414 0.414 0.414 0.414 0.414 0.415 0.415 0 0 0 0.483 0.483 0.483 0.483 0.483 0.483 0.483 0.483 0.483 0.483 0.483 0.483 0.482 0.482 0.482 0.482 0.481 0.481 0.48 0.48 0.479 0.479 0.479 0.477 0.477 0.477 0.477 0.477 0.477 0.477 0.477 0.477 0.477 0.477 0.477 0.477 0.477 0.478 0.479 0.479 0.479 0.48 0.48 0.48 0.48 0.481 0.481 0.481 0.482 0.482 0.482 0.482 0.482 0.482 0.482 0.482 0.482 0.482 0.482 0.482 0.482 0.482 0.483 0.482 0.482 0.482 0.48 0.48 0.479 0.477 0.477 0.476 0.476 0.477 0.475 0.475 0.475 0.475 0.475 0.475 0.476 0.476 0.476 0.478 0.478 0.48 0.482 0.482 0.483 0 0 0 0 0 0 0 0 0 0 0 0 0 0 0 0 0 0 0 0 0 0 0 0 0 0 0 0 0 0 0 0 0 0 0 0 0 0 0 0 0 0 0 0 0 0 0 0 0 0 0 0 0 0 0 0 0 0 0 0 0 0 0 0 0 0 0 0 0 0 0 0 0 0 0 0 0 0 0 0 0 0 0 0 0 0 0 0 0 0 0
0.434 0.435 0.435 0.435 0.435 0.435 0.436 0.436 0.437 0.437 0.437 0.437 0.437 0.437 0.438 0.438 0.438 0.438 0.438 0.439 0.439 0.439 0.44 0.44 0.44 0.44 0.44 0.44 0.44 0.44 0.44 0.44 0.441 0.441 0.441 0.441 0.441 0.441 0.441 0.441 0.442 0.442 0.442 0.442 0.442 0.443 0.443 0.443 0.443 0.443 0.443 0.443 0.442 0.442 0.442 0.442 0.442 0.442 0.442 0.442 0.442 0.442 0.442 0.442 0.442 0.442 0.442 0.443 0.443 0.443 0.443 0.444 0.444 0.444 0.445 0.445 0.445 0.445 0.445 0.445 0.446 0.446 0.446 0.446 0.446 0.446 0.446 0.447 0.447 0.447 0.447 0.447 0.447 0.448 0.448 0.448 0.448 0.448 0.448 0.448 0.448 0.448 0.448 0.448 0.448 0.448 0.448 0.449 0.449 0.449 0.449 0.449 0.449 0.449 0.449 0.449 0.449 0.449 0.449 0.45 0.45 0.45 0.45 0.45 0.45 0.45 0.45 0.451 0.451 0.451 0.451 0.451 0.452 0.452 0.452 0.453 0.453 0.453 0.453 0.453 0.453 0.453 0.453 0.453 0.454 0.454 0.454 0.454 0.454 0.454 0.454 0.454 0.454 0.454 0.454 0.454 0.453 0.453 0.453 0.453 0.453 0.453 0.453 0.453 0.454 0.454 0.454 0.454 0.455 0.455 0.455 0.455 0.456 0.456 0.456 0.456 0.456 0.456 0.456 0.456 0.456 0.456 0.456 0.456 0.456 0.456 0.456 0.456 0.455 0.455 0.455 0.455 0.455 0.455 0.455 0.452 0.434 0.434 0.434 0 0.412 0.411 0.411 0.409 0.408 0.408 0.407 0.407 0.407 0.406 0.406 0.406 0.406 0.406 0.406 0.406 0.406 0.406 0.406 0.406 0.407 0.407 0.407 0.408 0.408 0.408 0.409 0.409 0.409 0.409 0.409 0.41 0.41 0.41 0.411 0.411 0.411 0.411 0.411 0.411 0.411 0.411 0.411 0.411 0.412 0.412 0.412 0.412 0.412 0.411 0.411 0.411 0.411 0.411 0.411 0.411 0.411 0.411 0.412 0.412 0.412 0.412 0.412 0.412 0.412 0.412 0.412 0.412 0.413 0.413 0.413 0.413 0.413 0.413 0.413 0.413 0.414 0.414 0.414 0.414 0.414 0.414 0.414 0.414 0.414 0.414 0.414 0.414 0.414 0.414 0.415 0.415 0.415 0.415 0.415 0.415 0.415 0 0 0 0.483 0.483 0.483 0.483 0.483 0.483 0.483 0.483 0.483 0.483 0.483 0.483 0.483 0.483 0.483 0.482 0.482 0.482 0.48 0.48 0.479 0.479 0.479 0.477 0.477 0.477 0.477 0.477 0.477 0.477 0.477 0.477 0.477 0.477 0.477 0.477 0.477 0.478 0.479 0.479 0.479 0.48 0.48 0.481 0.481 0.481 0.482 0.482 0.482 0.482 0.482 0.482 0.482 0.482 0.482 0.482 0.482 0.482 0.482 0.483 0.483 0.483 0.483 0.483 0.482 0.482 0.48 0.48 0.479 0.477 0.477 0.476 0.476 0 0.475 0.475 0.475 0.475 0.475 0.475 0.476 0.476 0.476 0.478 0.478 0.482 0.482 0.482 0 0 0 0 0 0 0 0 0 0 0 0 0 0 0 0 0 0 0 0 0 0 0 0 0 0 0 0 0 0 0 0 0 0 0 0 0 0 0 0 0 0 0 0 0 0 0 0 0 0 0 0 0 0 0 0 0 0 0 0 0 0 0 0 0 0 0 0 0 0 0 0 0 0 0 0 0 0 0 0 0 0 0 0 0 0 0 0 0 0 0 0
0.434 0.435 0.435 0.435 0.435 0.435 0.436 0.436 0.436 0.437 0.437 0.437 0.437 0.437 0.437 0.437 0.438 0.438 0.438 0.438 0.438 0.439 0.439 0.439 0.44 0.44 0.44 0.44 0.44 0.44 0.44 0.44 0.441 0.441 0.441 0.441 0.441 0.441 0.441 0.441 0.442 0.442 0.442 0.442 0.442 0.443 0.443 0.443 0.443 0.443 0.443 0.443 0.442 0.442 0.442 0.442 0.442 0.442 0.442 0.442 0.442 0.442 0.442 0.442 0.442 0.442 0.442 0.443 0.443 0.443 0.443 0.444 0.444 0.444 0.445 0.445 0.445 0.445 0.445 0.446 0.446 0.446 0.446 0.446 0.446 0.446 0.446 0.446 0.447 0.447 0.447 0.447 0.447 0.447 0.447 0.448 0.448 0.448 0.448 0.448 0.448 0.448 0.448 0.448 0.448 0.448 0.448 0.449 0.449 0.449 0.449 0.449 0.449 0.449 0.449 0.449 0.449 0.449 0.449 0.45 0.45 0.45 0.45 0.45 0.45 0.45 0.45 0.45 0.451 0.451 0.451 0.451 0.452 0.452 0.452 0.452 0.453 0.453 0.453 0.453 0.453 0.453 0.453 0.453 0.454 0.454 0.454 0.454 0.454 0.454 0.454 0.454 0.454 0.454 0.454 0.454 0.453 0.453 0.453 0.453 0.453 0.453 0.453 0.453 0.454 0.454 0.454 0.454 0.455 0.455 0.455 0.455 0.456 0.456 0.456 0.456 0.456 0.456 0.456 0.456 0.456 0.456 0.456 0.456 0.456 0.456 0.456 0.456 0.455 0.455 0.455 0.455 0.455 0.455 0.455 0.454 0.434 0.434 0.434 0 0.412 0.411 0.411 0.409 0.407 0.407 0.407 0.407 0.407 0.406 0.406 0.406 0.406 0.406 0.406 0.406 0.406 0.406 0.406 0.406 0.407 0.407 0.407 0.408 0.408 0.409 0.409 0.409 0.409 0.41 0.41 0.41 0.41 0.411 0.411 0.411 0.411 0.411 0.411 0.411 0.411 0.411 0.412 0.412 0.412 0.412 0.412 0.412 0.412 0.411 0.411 0.411 0.411 0.411 0.411 0.411 0.411 0.411 0.412 0.412 0.412 0.412 0.412 0.412 0.412 0.412 0.412 0.412 0.413 0.413 0.413 0.413 0.413 0.413 0.413 0.413 0.414 0.414 0.414 0.414 0.414 0.414 0.414 0.414 0.414 0.414 0.414 0.414 0.414 0.414 0.415 0.415 0.415 0.415 0.415 0.415 0.415 0 0 0.482 0.482 0.482 0.482 0.483 0.483 0.483 0.483 0.483 0.483 0.483 0.483 0.483 0.483 0.483 0.483 0.482 0.482 0.482 0.48 0.48 0.479 0.478 0.478 0.477 0.477 0.477 0.477 0.477 0.477 0.477 0.477 0.477 0.477 0.477 0.477 0.477 0.477 0.478 0.479 0.479 0.479 0.48 0.48 0.481 0.481 0.481 0.482 0.482 0.482 0.482 0.482 0.482 0.482 0.482 0.482 0.482 0.482 0.482 0.482 0.483 0.483 0.484 0.484 0.483 0.483 0.483 0.48 0.48 0.479 0.477 0.477 0.476 0.475 0.475 0.474 0.474 0.474 0.474 0.474 0.474 0.476 0.476 0.476 0.478 0.478 0.482 0.482 0.482 0 0 0 0 0 0 0 0 0 0 0 0 0 0 0 0 0 0 0 0 0 0 0 0 0 0 0 0 0 0 0 0 0 0 0 0 0 0 0 0 0 0 0 0 0 0 0 0 0 0 0 0 0 0 0 0 0 0 0 0 0 0 0 0 0 0 0 0 0 0 0 0 0 0 0 0 0 0 0 0 0 0 0 0 0 0 0 0 0 0 0 0
0.434 0.435 0.435 0.435 0.435 0.435 0.436 0.436 0.436 0.437 0.437 0.437 0.437 0.437 0.437 0.437 0.438 0.438 0.438 0.438 0.438 0.439 0.439 0.439 0.44 0.44 0.44 0.44 0.44 0.44 0.44 0.44 0.441 0.441 0.441 0.441 0.441 0.441 0.441 0.441 0.441 0.441 0.442 0.442 0.442 0.442 0.443 0.443 0.443 0.443 0.442 0.442 0.442 0.442 0.442 0.442 0.442 0.441 0.441 0.441 0.441 0.442 0.442 0.442 0.442 0.442 0.442 0.443 0.443 0.443 0.443 0.444 0.444 0.444 0.445 0.445 0.445 0.446 0.446 0.446 0.446 0.446 0.446 0.446 0.446 0.446 0.446 0.446 0.447 0.447 0.447 0.447 0.447 0.447 0.447 0.448 0.448 0.448 0.448 0.448 0.448 0.448 0.448 0.448 0.448 0.448 0.448 0.449 0.449 0.449 0.449 0.449 0.449 0.449 0.449 0.449 0.449 0.449 0.449 0.45 0.45 0.45 0.45 0.45 0.45 0.45 0.45 0.45 0.451 0.451 0.451 0.451 0.452 0.452 0.452 0.452 0.452 0.452 0.453 0.453 0.453 0.453 0.453 0.453 0.454 0.454 0.454 0.454 0.454 0.454 0.454 0.454 0.454 0.454 0.454 0.453 0.453 0.453 0.453 0.453 0.453 0.453 0.453 0.453 0.453 0.454 0.454 0.454 0.455 0.455 0.455 0.455 0.455 0.456 0.456 0.456 0.456 0.456 0.456 0.456 0.456 0.456 0.456 0.456 0.456 0.456 0.456 0.456 0.455 0.455 0.455 0.455 0.455 0.455 0.455 0.454 0.438 0.438 0.438 0 0.411 0.409 0.409 0.408 0.407 0.407 0.407 0.407 0.406 0.406 0.406 0.406 0.406 0.406 0.406 0.406 0.406 0.406 0.406 0.406 0.407 0.407 0.407 0.408 0.408 0.409 0.409 0.409 0.409 0.41 0.41 0.41 0.41 0.41 0.411 0.411 0.411 0.411 0.411 0.411 0.411 0.411 0.412 0.412 0.412 0.412 0.412 0.412 0.412 0.411 0.411 0.411 0.411 0.411 0.411 0.411 0.411 0.412 0.412 0.412 0.412 0.412 0.412 0.412 0.412 0.412 0.413 0.413 0.413 0.413 0.413 0.413 0.413 0.413 0.414 0.414 0.414 0.414 0.414 0.414 0.414 0.414 0.414 0.414 0.414 0.414 0.414 0.414 0.414 0.414 0.415 0.415 0.415 0.415 0.415 0.415 0.415 0 0 0.482 0.482 0.482 0.482 0.483 0.483 0.483 0.484 0.484 0.483 0.483 0.483 0.483 0.483 0.483 0.483 0.483 0.482 0.482 0.48 0.48 0.479 0.478 0.478 0.477 0.477 0.477 0.477 0.477 0.477 0.477 0.477 0.477 0.477 0.477 0.477 0.478 0.478 0.479 0.479 0.479 0.48 0.48 0.48 0.481 0.481 0.482 0.482 0.482 0.482 0.483 0.482 0.482 0.482 0.483 0.483 0.483 0.483 0.483 0.483 0.483 0.483 0.484 0.484 0.483 0.483 0.483 0.48 0.48 0.479 0.477 0.477 0.475 0.474 0.474 0.473 0.473 0.473 0.472 0.472 0.472 0 0 0 0 0 0.482 0.482 0.482 0 0 0 0 0 0 0 0 0 0 0 0 0 0 0 0 0 0 0 0 0 0 0 0 0 0 0 0 0 0 0 0 0 0 0 0 0 0 0 0 0 0 0 0 0 0 0 0 0 0 0 0 0 0 0 0 0 0 0 0 0 0 0 0 0 0 0 0 0 0 0 0 0 0 0 0 0 0 0 0 0 0 0 0 0 0 0 0 0 0 0 0
0.434 0.435 0.435 0.435 0.435 0.435 0.436 0.436 0.436 0.437 0.437 0.437 0.437 0.437 0.437 0.437 0.438 0.438 0.438 0.438 0.438 0.439 0.439 0.439 0.44 0.44 0.44 0.44 0.44 0.44 0.44 0.44 0.441 0.441 0.441 0.441 0.441 0.441 0.441 0.441 0.441 0.441 0.441 0.442 0.442 0.442 0.442 0.442 0.442 0.442 0.442 0.442 0.442 0.442 0.442 0.442 0.442 0.441 0.441 0.441 0.441 0.441 0.442 0.442 0.442 0.442 0.442 0.443 0.443 0.443 0.443 0.444 0.444 0.444 0.445 0.445 0.445 0.446 0.446 0.446 0.446 0.446 0.446 0.446 0.446 0.446 0.446 0.446 0.447 0.447 0.447 0.447 0.447 0.447 0.447 0.448 0.448 0.448 0.448 0.448 0.448 0.448 0.448 0.448 0.448 0.448 0.448 0.449 0.449 0.449 0.449 0.449 0.449 0.449 0.449 0.449 0.449 0.45 0.45 0.45 0.45 0.45 0.45 0.45 0.45 0.45 0.45 0.451 0.451 0.451 0.451 0.451 0.452 0.452 0.452 0.452 0.452 0.452 0.453 0.453 0.453 0.453 0.453 0.453 0.454 0.454 0.454 0.454 0.454 0.454 0.454 0.454 0.454 0.454 0.454 0.453 0.453 0.453 0.453 0.453 0.453 0.453 0.453 0.453 0.453 0.454 0.454 0.454 0.454 0.454 0.455 0.455 0.455 0.456 0.456 0.456 0.456 0.456 0.456 0.456 0.456 0.456 0.456 0.456 0.456 0.456 0.456 0.456 0.455 0.455 0.455 0.455 0.455 0.455 0.455 0.454 0.441 0.441 0.441 0 0.411 0.409 0.409 0.408 0.407 0.407 0.407 0.407 0.406 0.406 0.406 0.406 0.406 0.406 0.406 0.406 0.406 0.406 0.406 0.406 0.407 0.407 0.407 0.408 0.408 0.409 0.409 0.409 0.409 0.41 0.41 0.41 0.41 0.41 0.411 0.411 0.411 0.411 0.411 0.411 0.411 0.412 0.412 0.412 0.412 0.412 0.412 0.412 0.412 0.412 0.412 0.411 0.411 0.411 0.411 0.411 0.411 0.412 0.412 0.412 0.412 0.412 0.412 0.412 0.412 0.412 0.413 0.413 0.413 0.413 0.413 0.413 0.413 0.413 0.413 0.413 0.414 0.414 0.414 0.414 0.414 0.414 0.414 0.414 0.414 0.414 0.414 0.414 0.414 0.414 0.415 0.415 0.415 0.415 0.415 0.415 0.415 0 0 0.482 0.482 0.482 0.482 0.483 0.483 0.483 0.484 0.484 0.483 0.483 0.483 0.483 0.483 0.483 0.483 0.483 0.482 0.482 0.48 0.48 0.479 0.478 0.478 0.477 0.477 0.477 0.477 0.477 0.477 0.476 0.476 0.476 0.477 0.477 0.477 0.478 0.478 0.479 0.479 0.479 0.48 0.481 0.481 0.482 0.482 0.482 0.482 0.482 0.482 0.483 0.483 0.483 0.483 0.483 0.483 0.483 0.483 0.483 0.483 0.484 0.484 0.484 0.484 0.484 0.483 0.483 0.48 0.48 0.479 0.477 0.477 0.475 0.474 0.474 0.473 0.473 0.473 0.472 0.472 0.472 0 0 0 0 0 0 0 0 0 0 0 0 0 0 0 0 0 0 0 0 0 0 0 0 0 0 0 0 0 0 0 0 0 0 0 0 0 0 0 0 0 0 0 0 0 0 0 0 0 0 0 0 0 0 0 0 0 0 0 0 0 0 0 0 0 0 0 0 0 0 0 0 0 0 0 0 0 0 0 0 0 0 0 0 0 0 0 0 0 0 0 0 0 0 0 0 0 0 0 0
0.435 0.435 0.435 0.435 0.435 0.435 0.436 0.436 0.436 0.437 0.437 0.437 0.437 0.437 0.437 0.437 0.438 0.438 0.438 0.438 0.438 0.439 0.439 0.439 0.44 0.44 0.44 0.44 0.44 0.44 0.44 0.44 0.441 0.441 0.44 0.44 0.44 0.441 0.441 0.441 0.441 0.441 0.441 0.442 0.442 0.442 0.442 0.442 0.442 0.442 0.442 0.442 0.442 0.442 0.442 0.442 0.442 0.441 0.441 0.441 0.441 0.441 0.442 0.442 0.442 0.442 0.442 0.443 0.443 0.443 0.443 0.444 0.445 0.445 0.445 0.445 0.445 0.446 0.446 0.446 0.446 0.446 0.446 0.446 0.446 0.446 0.446 0.446 0.446 0.446 0.447 0.447 0.447 0.447 0.447 0.448 0.448 0.448 0.448 0.448 0.448 0.448 0.448 0.448 0.448 0.448 0.449 0.449 0.449 0.449 0.449 0.449 0.449 0.449 0.449 0.449 0.449 0.45 0.45 0.45 0.45 0.45 0.45 0.45 0.45 0.45 0.45 0.451 0.451 0.451 0.451 0.451 0.452 0.452 0.452 0.452 0.452 0.452 0.453 0.453 0.453 0.453 0.453 0.453 0.453 0.453 0.454 0.454 0.454 0.454 0.454 0.454 0.454 0.454 0.454 0.453 0.453 0.453 0.453 0.452 0.452 0.452 0.453 0.453 0.453 0.454 0.454 0.454 0.454 0.454 0.455 0.455 0.455 0.456 0.456 0.456 0.456 0.456 0.456 0.456 0.456 0.456 0.456 0.456 0.456 0.456 0.456 0.456 0.455 0.455 0.455 0.455 0.455 0.455 0.455 0.454 0.441 0.441 0.441 0 0.411 0.409 0.409 0.408 0.407 0.407 0.407 0.407 0.406 0.406 0.406 0.406 0.406 0.406 0.406 0.406 0.406 0.406 0.406 0.406 0.407 0.407 0.407 0.408 0.408 0.409 0.409 0.409 0.409 0.41 0.41 0.41 0.41 0.411 0.411 0.411 0.411 0.411 0.411 0.411 0.411 0.412 0.412 0.412 0.412 0.412 0.412 0.412 0.412 0.412 0.412 0.412 0.412 0.412 0.412 0.412 0.412 0.412 0.412 0.412 0.412 0.412 0.412 0.412 0.412 0.412 0.413 0.413 0.413 0.413 0.413 0.413 0.413 0.413 0.413 0.413 0.414 0.414 0.414 0.414 0.414 0.414 0.414 0.414 0.414 0.414 0.414 0.414 0.414 0.414 0.415 0.415 0.415 0.415 0.415 0.415 0.415 0.482 0.482 0.482 0.482 0.482 0.482 0.482 0.482 0.483 0.483 0.483 0.483 0.483 0.483 0.483 0.483 0.483 0.483 0.483 0.482 0.482 0.481 0.481 0.48 0.479 0.479 0.478 0.477 0.477 0.477 0.477 0.477 0.476 0.476 0.476 0.476 0.476 0.477 0.478 0.478 0.478 0.479 0.479 0.48 0.48 0.481 0.482 0.482 0.482 0.482 0.482 0.482 0.483 0.483 0.483 0.483 0.483 0.483 0.483 0.483 0.483 0.483 0.484 0.484 0.484 0.484 0.484 0.483 0.483 0.48 0.48 0.479 0.477 0.477 0.475 0.474 0.474 0.473 0.473 0.472 0.471 0.471 0.471 0 0 0 0 0 0 0 0 0 0 0 0 0 0 0 0 0 0 0 0 0 0 0 0 0 0 0 0 0 0 0 0 0 0 0 0 0 0 0 0 0 0 0 0 0 0 0 0 0 0 0 0 0 0 0 0 0 0 0 0 0 0 0 0 0 0 0 0 0 0 0 0 0 0 0 0 0 0 0 0 0 0 0 0 0 0 0 0 0 0 0 0 0 0 0 0 0 0 0 0
0.435 0.435 0.435 0.435 0.435 0.436 0.436 0.436 0.437 0.437 0.437 0.437 0.437 0.437 0.437 0.437 0.438 0.438 0.438 0.438 0.438 0.439 0.439 0.439 0.44 0.44 0.44 0.44 0.44 0.44 0.44 0.44 0.44 0.44 0.44 0.44 0.44 0.44 0.441 0.441 0.441 0.441 0.441 0.441 0.441 0.442 0.442 0.442 0.442 0.442 0.442 0.442 0.442 0.442 0.442 0.441 0.441 0.441 0.441 0.441 0.441 0.441 0.442 0.442 0.442 0.442 0.442 0.443 0.443 0.443 0.443 0.444 0.445 0.445 0.445 0.445 0.445 0.446 0.445 0.445 0.445 0.445 0.446 0.446 0.446 0.446 0.446 0.446 0.446 0.446 0.447 0.447 0.447 0.447 0.447 0.448 0.448 0.448 0.448 0.448 0.448 0.448 0.448 0.448 0.448 0.448 0.449 0.449 0.449 0.449 0.449 0.449 0.449 0.449 0.449 0.449 0.449 0.45 0.45 0.45 0.45 0.45 0.45 0.45 0.45 0.45 0.45 0.451 0.451 0.451 0.451 0.451 0.452 0.452 0.452 0.452 0.452 0.452 0.453 0.453 0.453 0.453 0.453 0.453 0.453 0.453 0.454 0.454 0.454 0.454 0.454 0.454 0.454 0.454 0.454 0.453 0.453 0.453 0.453 0.452 0.452 0.452 0.453 0.453 0.453 0.453 0.453 0.454 0.454 0.454 0.455 0.455 0.455 0.456 0.456 0.456 0.456 0.456 0.456 0.456 0.456 0.456 0.456 0.456 0.456 0.456 0.456 0.456 0.455 0.455 0.455 0.455 0.455 0.455 0.455 0.454 0.443 0.443 0.443 0 0.411 0.41 0.41 0.408 0.407 0.407 0.407 0.407 0.406 0.406 0.406 0.406 0.406 0.406 0.406 0.406 0.406 0.406 0.406 0.406 0.407 0.407 0.407 0.408 0.408 0.409 0.409 0.409 0.409 0.41 0.41 0.41 0.41 0.411 0.411 0.411 0.411 0.411 0.411 0.411 0.411 0.412 0.412 0.412 0.412 0.412 0.412 0.412 0.412 0.412 0.412 0.412 0.412 0.412 0.412 0.412 0.412 0.412 0.412 0.412 0.412 0.412 0.412 0.412 0.412 0.412 0.413 0.413 0.413 0.413 0.413 0.414 0.414 0.414 0.414 0.414 0.414 0.414 0.414 0.414 0.414 0.414 0.414 0.414 0.414 0.414 0.414 0.415 0.415 0.415 0.415 0.415 0.415 0.415 0.415 0 0 0.482 0.482 0.482 0.482 0.482 0.482 0.482 0.482 0.483 0.483 0.483 0.483 0.483 0.483 0.483 0.483 0.484 0.484 0.483 0.483 0.483 0.481 0.481 0.48 0.479 0.479 0.478 0.477 0.477 0.477 0.477 0.477 0.476 0.476 0.476 0.476 0.476 0.477 0.478 0.478 0.478 0.479 0.479 0.48 0.48 0.481 0.482 0.482 0.482 0.482 0.482 0.483 0.483 0.483 0.483 0.483 0.483 0.483 0.483 0.484 0.484 0.484 0.484 0.484 0.484 0.484 0.484 0.484 0.484 0.481 0.481 0.479 0.477 0.477 0.475 0.474 0.474 0.473 0.473 0.472 0.471 0.471 0.471 0 0 0 0 0 0 0 0 0 0 0 0 0 0 0 0 0 0 0 0 0 0 0 0 0 0 0 0 0 0 0 0 0 0 0 0 0 0 0 0 0 0 0 0 0 0 0 0 0 0 0 0 0 0 0 0 0 0 0 0 0 0 0 0 0 0 0 0 0 0 0 0 0 0 0 0 0 0 0 0 0 0 0 0 0 0 0 0 0 0 0 0 0 0 0 0 0 0 0 0
0.435 0.435 0.435 0.435 0.435 0.436 0.436 0.436 0.437 0.437 0.437 0.437 0.437 0.437 0.437 0.437 0.438 0.438 0.438 0.438 0.438 0.439 0.439 0.439 0.44 0.44 0.44 0.44 0.44 0.44 0.44 0.44 0.44 0.44 0.44 0.44 0.44 0.44 0.441 0.441 0.441 0.441 0.441 0.441 0.441 0.442 0.442 0.442 0.442 0.442 0.442 0.442 0.442 0.442 0.442 0.441 0.441 0.441 0.441 0.441 0.441 0.441 0.441 0.442 0.442 0.442 0.442 0.443 0.443 0.443 0.443 0.444 0.445 0.445 0.445 0.445 0.445 0.445 0.445 0.445 0.445 0.445 0.446 0.446 0.446 0.446 0.446 0.446 0.446 0.446 0.447 0.447 0.447 0.447 0.447 0.448 0.448 0.448 0.448 0.448 0.448 0.448 0.448 0.448 0.448 0.448 0.449 0.449 0.449 0.449 0.449 0.449 0.449 0.449 0.449 0.449 0.449 0.45 0.45 0.45 0.45 0.45 0.45 0.45 0.45 0.45 0.45 0.451 0.451 0.451 0.452 0.452 0.452 0.452 0.452 0.452 0.452 0.452 0.453 0.453 0.453 0.453 0.453 0.453 0.453 0.453 0.454 0.454 0.454 0.454 0.454 0.454 0.454 0.454 0.454 0.453 0.453 0.453 0.453 0.452 0.452 0.452 0.453 0.453 0.453 0.453 0.453 0.454 0.454 0.455 0.455 0.455 0.455 0.456 0.456 0.456 0.456 0.456 0.456 0.456 0.456 0.456 0.456 0.456 0.456 0.456 0.456 0.456 0.456 0.456 0.455 0.455 0.455 0.455 0.455 0.455 0.445 0.445 0.445 0 0 0.41 0.41 0.408 0.407 0.407 0.407 0.407 0.407 0.406 0.406 0.406 0.406 0.406 0.406 0.406 0.406 0.407 0.407 0.407 0.407 0.408 0.408 0.408 0.408 0.409 0.409 0.409 0.41 0.41 0.41 0.41 0.41 0.411 0.411 0.411 0.411 0.411 0.411 0.411 0.411 0.412 0.412 0.412 0.412 0.412 0.412 0.412 0.412 0.412 0.412 0.412 0.412 0.412 0.412 0.412 0.412 0.412 0.412 0.412 0.412 0.412 0.412 0.412 0.412 0.413 0.413 0.413 0.413 0.413 0.413 0.414 0.414 0.414 0.414 0.414 0.414 0.414 0.414 0.414 0.414 0.414 0.414 0.414 0.414 0.414 0.414 0.414 0.414 0.415 0.415 0.415 0.415 0.415 0.415 0.415 0.415 0.481 0.481 0.481 0.481 0.481 0.482 0.482 0.482 0.482 0.483 0.483 0.483 0.483 0.483 0.483 0.483 0.484 0.484 0.483 0.483 0.483 0.481 0.481 0.48 0.479 0.479 0.478 0.477 0.477 0.477 0.477 0.476 0.476 0.476 0.476 0.476 0.476 0.477 0.477 0.477 0.478 0.479 0.479 0.48 0.48 0.481 0.481 0.481 0.482 0.482 0.482 0.483 0.483 0.483 0.483 0.483 0.483 0.484 0.484 0.484 0.484 0.484 0.484 0.484 0.484 0.484 0.484 0.484 0.484 0.481 0.481 0.479 0.477 0.477 0.475 0.474 0.474 0.473 0.473 0.471 0.471 0.471 0.471 0 0 0 0 0 0 0 0 0 0 0 0 0 0 0 0 0 0 0 0 0 0 0 0 0 0 0 0 0 0 0 0 0 0 0 0 0 0 0 0 0 0 0 0 0 0 0 0 0 0 0 0 0 0 0 0 0 0 0 0 0 0 0 0 0 0 0 0 0 0 0 0 0 0 0 0 0 0 0 0 0 0 0 0 0 0 0 0 0 0 0 0 0 0 0 0 0 0 0 0
0.435 0.435 0.435 0.436 0.436 0.436 0.436 0.436 0.437 0.437 0.437 0.437 0.437 0.437 0.437 0.437 0.438 0.438 0.438 0.438 0.438 0.439 0.439 0.439 0.44 0.44 0.44 0.44 0.44 0.44 0.44 0.44 0.44 0.44 0.44 0.44 0.44 0.44 0.44 0.44 0.44 0.44 0.441 0.441 0.441 0.442 0.442 0.442 0.442 0.442 0.442 0.442 0.442 0.442 0.442 0.441 0.441 0.441 0.441 0.441 0.441 0.441 0.441 0.442 0.442 0.442 0.443 0.443 0.443 0.444 0.444 0.444 0.445 0.445 0.445 0.445 0.445 0.445 0.445 0.446 0.446 0.446 0.446 0.446 0.446 0.446 0.446 0.446 0.446 0.446 0.447 0.447 0.447 0.447 0.447 0.448 0.448 0.448 0.448 0.448 0.448 0.448 0.448 0.448 0.448 0.448 0.449 0.449 0.449 0.449 0.449 0.449 0.449 0.449 0.449 0.449 0.45 0.45 0.45 0.45 0.45 0.45 0.45 0.45 0.45 0.451 0.451 0.451 0.451 0.451 0.452 0.452 0.452 0.452 0.452 0.452 0.452 0.452 0.452 0.452 0.452 0.452 0.452 0.453 0.453 0.453 0.453 0.453 0.454 0.454 0.454 0.454 0.454 0.454 0.454 0.453 0.453 0.453 0.453 0.452 0.452 0.452 0.453 0.453 0.453 0.453 0.453 0.454 0.454 0.455 0.455 0.455 0.456 0.456 0.456 0.456 0.456 0.456 0.456 0.456 0.456 0.456 0.456 0.456 0.456 0.456 0.456 0.456 0.456 0.456 0.456 0.456 0.456 0.456 0.456 0.455 0.445 0.445 0.445 0 0 0.41 0.41 0.407 0.407 0.407 0.407 0.407 0.406 0.406 0.406 0.406 0.406 0.406 0.406 0.406 0.406 0.407 0.407 0.407 0.407 0.408 0.408 0.408 0.408 0.409 0.409 0.409 0.409 0.41 0.41 0.41 0.41 0.411 0.411 0.411 0.411 0.411 0.411 0.411 0.411 0.412 0.412 0.412 0.412 0.412 0.412 0.412 0.412 0.412 0.412 0.412 0.412 0.412 0.412 0.412 0.412 0.412 0.412 0.412 0.412 0.412 0.412 0.413 0.413 0.413 0.413 0.413 0.414 0.414 0.414 0.414 0.414 0.414 0.414 0.414 0.414 0.414 0.414 0.414 0.414 0.414 0.414 0.414 0.414 0.414 0.414 0.414 0.414 0.415 0.415 0.415 0.415 0.415 0.415 0.415 0.415 0.481 0.481 0.481 0.481 0.481 0.481 0.481 0.481 0.482 0.482 0.482 0.483 0.483 0.483 0.483 0.483 0.484 0.484 0.484 0.484 0.483 0.482 0.482 0.48 0.479 0.479 0.478 0.478 0.477 0.477 0.477 0.476 0.476 0.476 0.476 0.476 0.476 0.476 0.477 0.477 0.478 0.479 0.479 0.48 0.48 0.48 0.481 0.481 0.482 0.482 0.482 0.483 0.483 0.483 0.483 0.483 0.483 0.483 0.483 0.484 0.484 0.484 0.484 0.484 0.484 0.484 0.484 0.484 0.484 0.481 0.481 0.479 0.477 0.477 0.477 0.474 0.474 0.473 0.473 0.471 0.471 0 0 0 0 0 0 0 0 0 0 0 0 0 0 0 0 0 0 0 0 0 0 0 0 0 0 0 0 0 0 0 0 0 0 0 0 0 0 0 0 0 0 0 0 0 0 0 0 0 0 0 0 0 0 0 0 0 0 0 0 0 0 0 0 0 0 0 0 0 0 0 0 0 0 0 0 0 0 0 0 0 0 0 0 0 0 0 0 0 0 0 0 0 0 0 0 0 0 0 0 0 0
0.435 0.435 0.435 0.436 0.436 0.436 0.436 0.436 0.437 0.437 0.437 0.437 0.437 0.437 0.437 0.437 0.438 0.438 0.438 0.438 0.438 0.439 0.439 0.439 0.44 0.44 0.44 0.44 0.44 0.44 0.44 0.44 0.44 0.44 0.44 0.44 0.44 0.44 0.44 0.44 0.44 0.44 0.441 0.441 0.441 0.441 0.442 0.442 0.442 0.442 0.442 0.442 0.442 0.442 0.442 0.441 0.441 0.441 0.441 0.441 0.441 0.441 0.441 0.442 0.442 0.442 0.443 0.443 0.443 0.444 0.444 0.444 0.445 0.445 0.445 0.445 0.445 0.445 0.445 0.446 0.446 0.446 0.446 0.446 0.446 0.446 0.446 0.446 0.446 0.446 0.447 0.447 0.447 0.447 0.447 0.447 0.448 0.448 0.448 0.448 0.448 0.448 0.448 0.448 0.448 0.448 0.449 0.449 0.449 0.449 0.449 0.449 0.45 0.45 0.45 0.45 0.45 0.45 0.45 0.45 0.45 0.45 0.45 0.45 0.45 0.451 0.451 0.451 0.452 0.452 0.452 0.452 0.452 0.453 0.453 0.453 0.453 0.452 0.452 0.452 0.452 0.452 0.452 0.453 0.453 0.453 0.453 0.453 0.454 0.454 0.454 0.454 0.454 0.454 0.454 0.453 0.453 0.453 0.453 0.453 0.453 0.453 0.453 0.453 0.453 0.454 0.454 0.454 0.454 0.455 0.455 0.455 0.456 0.456 0.456 0.456 0.456 0.456 0.456 0.456 0.456 0.456 0.456 0.456 0.456 0.456 0.456 0.456 0.456 0.456 0.456 0.456 0.456 0.456 0.456 0.455 0.454 0.454 0.454 0 0 0.409 0.409 0.407 0.407 0.407 0.407 0.407 0.406 0.406 0.406 0.406 0.406 0.406 0.406 0.406 0.406 0.407 0.407 0.407 0.407 0.408 0.408 0.408 0.408 0.409 0.409 0.409 0.409 0.41 0.41 0.41 0.41 0.411 0.411 0.411 0.411 0.411 0.411 0.411 0.411 0.412 0.412 0.412 0.412 0.412 0.412 0.412 0.412 0.412 0.412 0.412 0.412 0.412 0.412 0.412 0.412 0.412 0.412 0.412 0.412 0.412 0.412 0.413 0.413 0.413 0.413 0.413 0.414 0.414 0.414 0.414 0.414 0.414 0.414 0.414 0.414 0.414 0.414 0.414 0.414 0.414 0.414 0.414 0.414 0.414 0.415 0.415 0.415 0.415 0.415 0.415 0.415 0.415 0.415 0.415 0.415 0.48 0.48 0.48 0.48 0.48 0.48 0.481 0.481 0.482 0.482 0.482 0.483 0.483 0.483 0.483 0.483 0.484 0.484 0.484 0.484 0.483 0.482 0.482 0.48 0.479 0.479 0.478 0.478 0.477 0.477 0.477 0.477 0.476 0.476 0.476 0.476 0.476 0.476 0.477 0.477 0.478 0.479 0.479 0.48 0.48 0.48 0.482 0.482 0.482 0.482 0.482 0.483 0.483 0.483 0.483 0.483 0.483 0.483 0.483 0.484 0.484 0.484 0.484 0.484 0.484 0.484 0.484 0.484 0.484 0.481 0.481 0.479 0.478 0.478 0.478 0 0.475 0.475 0 0 0 0 0 0 0 0 0 0 0 0 0 0 0 0 0 0 0 0 0 0 0 0 0 0 0 0 0 0 0 0 0 0 0 0 0 0 0 0 0 0 0 0 0 0 0 0 0 0 0 0 0 0 0 0 0 0 0 0 0 0 0 0 0 0 0 0 0 0 0 0 0 0 0 0 0 0 0 0 0 0 0 0 0 0 0 0 0 0 0 0 0 0 0 0 0 0 0 0 0 0 0 0 0
0.435 0.435 0.435 0.436 0.436 0.436 0.436 0.436 0.437 0.437 0.437 0.437 0.437 0.437 0.437 0.437 0.438 0.438 0.438 0.438 0.438 0.439 0.439 0.439 0.439 0.439 0.44 0.44 0.44 0.44 0.44 0.44 0.44 0.44 0.44 0.44 0.44 0.44 0.44 0.44 0.44 0.44 0.441 0.441 0.441 0.441 0.442 0.442 0.442 0.442 0.442 0.442 0.442 0.442 0.442 0.442 0.442 0.441 0.441 0.441 0.441 0.442 0.442 0.442 0.442 0.442 0.443 0.444 0.444 0.444 0.444 0.444 0.445 0.445 0.445 0.445 0.445 0.445 0.445 0.445 0.445 0.445 0.446 0.446 0.446 0.446 0.446 0.446 0.446 0.446 0.447 0.447 0.447 0.447 0.447 0.447 0.448 0.448 0.448 0.448 0.448 0.448 0.448 0.448 0.448 0.448 0.449 0.449 0.449 0.449 0.449 0.449 0.45 0.45 0.45 0.45 0.45 0.45 0.45 0.45 0.45 0.45 0.45 0.45 0.45 0.451 0.451 0.451 0.452 0.452 0.452 0.452 0.452 0.453 0.453 0.453 0.453 0.452 0.452 0.452 0.452 0.453 0.453 0.453 0.453 0.453 0.453 0.453 0.454 0.454 0.454 0.454 0.454 0.454 0.454 0.453 0.453 0.453 0.453 0.453 0.453 0.453 0.453 0.453 0.453 0.454 0.454 0.454 0.454 0.455 0.455 0.455 0.456 0.456 0.456 0.456 0.456 0.456 0.456 0.456 0.456 0.456 0.456 0.456 0.456 0.456 0.457 0.456 0.456 0.456 0.456 0.456 0.456 0.456 0.456 0.456 0.456 0.456 0.456 0 0 0.409 0.409 0.407 0.407 0.407 0.406 0.406 0.406 0.406 0.406 0.406 0.406 0.406 0.406 0.406 0.406 0.407 0.407 0.407 0.407 0.408 0.408 0.408 0.408 0.409 0.409 0.409 0.409 0.41 0.41 0.41 0.41 0.411 0.411 0.411 0.411 0.411 0.411 0.412 0.412 0.412 0.412 0.412 0.412 0.412 0.412 0.412 0.412 0.412 0.412 0.412 0.412 0.412 0.412 0.412 0.412 0.412 0.412 0.412 0.412 0.412 0.413 0.413 0.413 0.413 0.413 0.413 0.414 0.414 0.414 0.414 0.414 0.414 0.414 0.414 0.414 0.414 0.414 0.414 0.414 0.414 0.414 0.414 0.414 0.414 0.415 0.415 0.415 0.415 0.415 0.415 0.415 0.415 0.415 0.415 0.415 0.479 0.479 0.479 0.479 0.479 0.48 0.48 0.48 0.48 0.481 0.481 0.482 0.482 0.482 0.482 0.482 0.483 0.483 0.483 0.483 0.483 0.482 0.482 0.48 0.479 0.479 0.478 0.478 0.477 0.477 0.477 0.477 0.476 0.476 0.476 0.476 0.476 0.476 0.477 0.477 0.477 0.478 0.478 0.479 0.479 0.48 0.482 0.482 0.482 0.482 0.482 0.483 0.483 0.483 0.483 0.483 0.483 0.483 0.483 0.484 0.484 0.484 0.484 0.484 0.484 0.484 0.484 0.484 0.484 0.481 0.481 0.479 0.478 0.478 0.478 0 0.475 0.475 0 0 0 0 0 0 0 0 0 0 0 0 0 0 0 0 0 0 0 0 0 0 0 0 0 0 0 0 0 0 0 0 0 0 0 0 0 0 0 0 0 0 0 0 0 0 0 0 0 0 0 0 0 0 0 0 0 0 0 0 0 0 0 0 0 0 0 0 0 0 0 0 0 0 0 0 0 0 0 0 0 0 0 0 0 0 0 0 0 0 0 0 0 0 0 0 0 0 0 0 0 0 0 0 0
0.435 0.435 0.435 0.436 0.436 0.436 0.436 0.436 0.437 0.437 0.437 0.437 0.437 0.437 0.437 0.437 0.438 0.438 0.438 0.438 0.438 0.439 0.439 0.439 0.439 0.439 0.44 0.44 0.44 0.44 0.44 0.44 0.44 0.44 0.439 0.439 0.439 0.439 0.44 0.44 0.44 0.44 0.44 0.441 0.441 0.441 0.441 0.441 0.442 0.442 0.442 0.442 0.442 0.442 0.442 0.442 0.442 0.441 0.441 0.441 0.441 0.442 0.442 0.442 0.442 0.442 0.443 0.444 0.444 0.444 0.444 0.445 0.445 0.445 0.445 0.445 0.445 0.445 0.445 0.445 0.445 0.445 0.446 0.446 0.446 0.446 0.446 0.446 0.446 0.446 0.447 0.447 0.447 0.447 0.447 0.447 0.448 0.448 0.448 0.448 0.448 0.448 0.448 0.449 0.449 0.449 0.449 0.449 0.449 0.45 0.45 0.45 0.45 0.45 0.45 0.45 0.45 0.45 0.45 0.45 0.45 0.45 0.45 0.45 0.451 0.451 0.451 0.451 0.452 0.452 0.452 0.452 0.452 0.453 0.453 0.453 0.453 0.453 0.453 0.453 0.453 0.453 0.453 0.453 0.453 0.453 0.453 0.453 0.453 0.453 0.453 0.454 0.454 0.454 0.454 0.453 0.453 0.453 0.453 0.453 0.453 0.453 0.453 0.453 0.453 0.454 0.454 0.454 0.454 0.455 0.455 0.455 0.456 0.456 0.456 0.456 0.456 0.456 0.456 0.456 0.456 0.456 0.456 0.456 0.456 0.456 0.457 0.456 0.456 0.456 0.456 0.457 0.457 0.457 0.457 0.457 0.457 0.457 0.457 0 0 0.409 0.409 0.407 0.407 0.407 0.406 0.406 0.406 0.406 0.406 0.406 0.406 0.406 0.406 0.406 0.406 0.407 0.407 0.407 0.407 0.408 0.408 0.408 0.408 0.409 0.409 0.409 0.409 0.41 0.41 0.41 0.41 0.411 0.411 0.411 0.411 0.411 0.411 0.412 0.412 0.412 0.412 0.412 0.412 0.412 0.412 0.412 0.412 0.412 0.412 0.412 0.412 0.412 0.412 0.412 0.412 0.412 0.412 0.412 0.413 0.413 0.413 0.413 0.413 0.413 0.414 0.414 0.414 0.414 0.414 0.414 0.414 0.414 0.414 0.414 0.414 0.414 0.414 0.414 0.414 0.414 0.414 0.414 0.414 0.414 0.415 0.415 0.415 0.415 0.415 0.415 0.415 0.415 0.415 0 0 0.479 0.479 0.479 0.479 0.479 0.48 0.48 0.48 0.48 0.481 0.481 0.482 0.482 0.482 0.482 0.482 0.483 0.483 0.483 0.483 0.483 0.482 0.482 0.481 0.479 0.479 0.478 0.478 0.478 0.477 0.477 0.477 0.476 0.476 0.476 0.476 0.476 0.476 0.477 0.477 0.477 0.478 0.478 0.479 0.479 0.48 0.481 0.481 0.481 0.482 0.482 0.483 0.483 0.483 0.483 0.483 0.484 0.484 0.484 0.484 0.484 0.484 0.484 0.484 0.484 0.484 0.484 0.484 0.484 0.481 0.481 0.48 0.478 0.478 0.478 0 0 0 0 0 0 0 0 0 0 0 0 0 0 0 0 0 0 0 0 0 0 0 0 0 0 0 0 0 0 0 0 0 0 0 0 0 0 0 0 0 0 0 0 0 0 0 0 0 0 0 0 0 0 0 0 0 0 0 0 0 0 0 0 0 0 0 0 0 0 0 0 0 0 0 0 0 0 0 0 0 0 0 0 0 0 0 0 0 0 0 0 0 0 0 0 0 0 0 0 0 0 0 0 0 0 0 0
