0.475 0.475 0.475 0.475 0.475 0.476 0.475 0.475 0.475 0.475 0.475 0.475 0.475 0.475 0.475 0.475 0.474 0.474 0.474 0.474 0.474 0.474 0.474 0.474 0.474 0.474 0.474 0.474 0.474 0.475 0.475 0.475 0.475 0.475 0.476 0.476 0.476 0.476 0.476 0.476 0.476 0.476 0.476 0.476 0.476 0.476 0.476 0.477 0.477 0.477 0.477 0.477 0.477 0.478 0.478 0.478 0.478 0.478 0.478 0.478 0.478 0.478 0.478 0.479 0.478 0.478 0.478 0.478 0.478 0.478 0.478 0.478 0.477 0.477 0.477 0.477 0.477 0.477 0.477 0.477 0.477 0.477 0.477 0.477 0.478 0.478 0.478 0.478 0.478 0.478 0.478 0.478 0.477 0.477 0.477 0.477 0.477 0.477 0.477 0.477 0.478 0.478 0.478 0.479 0.479 0.479 0.479 0.479 0.479 0.479 0.479 0.479 0.478 0.477 0.477 0.477 0.477 0.477 0.477 0.477 0.477 0.477 0.477 0.477 0.478 0.478 0.478 0.478 0.478 0.478 0.479 0.479 0.479 0.479 0.479 0.479 0.479 0.479 0.479 0.479 0.48 0.48 0.48 0.48 0.48 0.48 0.48 0.48 0.48 0.481 0.481 0.481 0.481 0.481 0.482 0.482 0.482 0.482 0.482 0.482 0.482 0.482 0.482 0.482 0.482 0.482 0.482 0.482 0.482 0.482 0.482 0.482 0.482 0.483 0.483 0.483 0.483 0.483 0.483 0.483 0.483 0.483 0.483 0.483 0.483 0.482 0.482 0.482 0.482 0.482 0.482 0.482 0.482 0.482 0.482 0.482 0.482 0.482 0.482 0.482 0.482 0.483 0.483 0.483 0.483 0.483 0.483 0.483 0.483 0.484 0.484 0.484 0.484 0.484 0.484 0.484 0.484 0.484 0.484 0.484 0.484 0.484 0.484 0.484 0.484 0.484 0.484 0.484 0.484 0.484 0.484 0.484 0.484 0.484 0.484 0.484 0.484 0.484 0.484 0.484 0.484 0.484 0.484 0.484 0.484 0.484 0.484 0.484 0.484 0.483 0.483 0.483 0.484 0.484 0.484 0.484 0.484 0.485 0.485 0.485 0.486 0.487 0.487 0.487 0.487 0.487 0.487 0.487 0.486 0.486 0.486 0.486 0.485 0.485 0.485 0.485 0.485 0.485 0.485 0.485 0.485 0.485 0.485 0.485 0.486 0.486 0.486 0.487 0.487 0.487 0.487 0.487 0.488 0.488 0.488 0.488 0.488 0.488 0.488 0.488 0.488 0.488 0.488 0.489 0.489 0.489 0.489 0.488 0.488 0.488 0.487 0.487 0.488 0.488 0.488 0.488 0.488 0.488 0.488 0.488 0.488 0.488 0 0 0 0 0 0 0 0 0 0 0 0 0 0 0 0 0 0 0 0 0 0 0 0 0 0 0 0 0 0 0 0 0 0 0 0 0 0 0 0 0 0 0 0 0 0 0 0 0 0 0 0 0 0 0 0 0 0 0 0 0 0 0 0 0 0 0 0 0 0 0 0 0 0 0 0 0 0 0 0 0 0 0 0 0 0 0 0 0 0 0 0 0 0 0 0 0 0 0 0 0 0 0 0 0 0 0 0 0 0 0 0 0 0 0 0 0 0 0 0 0 0 0 0 0 0 0 0 0 0 0 0 0 0 0 0 0 0 0 0 0 0 0 0 0 0 0 0 0 0 0 0 0 0 0 0 0 0
0.476 0.476 0.476 0.476 0.476 0.476 0.476 0.476 0.475 0.475 0.475 0.475 0.475 0.475 0.475 0.475 0.474 0.474 0.474 0.474 0.474 0.474 0.474 0.474 0.474 0.474 0.475 0.475 0.475 0.475 0.475 0.476 0.476 0.476 0.476 0.476 0.476 0.476 0.476 0.476 0.476 0.476 0.476 0.476 0.476 0.477 0.477 0.477 0.477 0.477 0.477 0.477 0.477 0.478 0.478 0.478 0.478 0.478 0.478 0.478 0.478 0.478 0.478 0.479 0.478 0.478 0.478 0.478 0.478 0.478 0.478 0.478 0.477 0.477 0.477 0.477 0.477 0.477 0.477 0.477 0.477 0.477 0.477 0.477 0.478 0.478 0.478 0.478 0.478 0.478 0.478 0.478 0.477 0.477 0.477 0.477 0.477 0.477 0.477 0.477 0.478 0.478 0.478 0.479 0.479 0.479 0.479 0.479 0.479 0.479 0.479 0.479 0.478 0.477 0.477 0.477 0.477 0.477 0.477 0.477 0.477 0.477 0.477 0.477 0.478 0.478 0.478 0.478 0.478 0.479 0.479 0.479 0.479 0.479 0.479 0.479 0.479 0.479 0.48 0.48 0.48 0.48 0.48 0.48 0.48 0.48 0.481 0.481 0.481 0.481 0.481 0.481 0.481 0.482 0.482 0.482 0.482 0.482 0.482 0.482 0.482 0.482 0.482 0.482 0.482 0.482 0.482 0.482 0.482 0.482 0.482 0.482 0.482 0.483 0.483 0.483 0.483 0.483 0.483 0.483 0.483 0.483 0.483 0.483 0.483 0.482 0.482 0.482 0.482 0.482 0.482 0.482 0.482 0.482 0.482 0.482 0.482 0.482 0.482 0.482 0.482 0.483 0.483 0.483 0.483 0.484 0.483 0.483 0.483 0.484 0.484 0.484 0.484 0.484 0.484 0.484 0.484 0.484 0.484 0.484 0.484 0.484 0.484 0.484 0.484 0.484 0.484 0.484 0.484 0.484 0.483 0.483 0.483 0.483 0.483 0.483 0.484 0.484 0.484 0.484 0.484 0.484 0.484 0.484 0.484 0.484 0.484 0.484 0.484 0.483 0.483 0.483 0.483 0.484 0.484 0.484 0.484 0.484 0.485 0.485 0.485 0.486 0.486 0.487 0.487 0.487 0.487 0.487 0.486 0.486 0.486 0.486 0.485 0.485 0.485 0.485 0.485 0.485 0.485 0.485 0.485 0.485 0.485 0.485 0.485 0.486 0.486 0.487 0.487 0.487 0.487 0.487 0.488 0.488 0.488 0.488 0.488 0.488 0.488 0.488 0.489 0.489 0.489 0.489 0.489 0.489 0.489 0.488 0.488 0.488 0.488 0.488 0.488 0.488 0.488 0.488 0.488 0.488 0.488 0.488 0.488 0.488 0 0 0 0 0 0 0 0 0 0 0 0 0 0 0 0 0 0 0 0 0 0 0 0 0 0 0 0 0 0 0 0 0 0 0 0 0 0 0 0 0 0 0 0 0 0 0 0 0 0 0 0 0 0 0 0 0 0 0 0 0 0 0 0 0 0 0 0 0 0 0 0 0 0 0 0 0 0 0 0 0 0 0 0 0 0 0 0 0 0 0 0 0 0 0 0 0 0 0 0 0 0 0 0 0 0 0 0 0 0 0 0 0 0 0 0 0 0 0 0 0 0 0 0 0 0 0 0 0 0 0 0 0 0 0 0 0 0 0 0 0 0 0 0 0 0 0 0 0 0 0 0 0 0 0 0 0 0
0.476 0.476 0.476 0.476 0.476 0.476 0.476 0.476 0.476 0.475 0.475 0.475 0.475 0.475 0.475 0.475 0.474 0.474 0.474 0.474 0.474 0.474 0.474 0.474 0.474 0.475 0.475 0.475 0.476 0.476 0.476 0.476 0.476 0.476 0.477 0.477 0.477 0.477 0.477 0.477 0.477 0.477 0.477 0.477 0.477 0.477 0.477 0.477 0.477 0.477 0.477 0.477 0.477 0.478 0.478 0.478 0.478 0.478 0.478 0.478 0.479 0.479 0.479 0.479 0.479 0.479 0.479 0.479 0.479 0.479 0.478 0.478 0.478 0.477 0.477 0.477 0.477 0.477 0.477 0.477 0.477 0.477 0.477 0.477 0.478 0.478 0.478 0.478 0.478 0.478 0.478 0.478 0.478 0.478 0.478 0.478 0.477 0.477 0.477 0.477 0.478 0.478 0.478 0.479 0.479 0.479 0.479 0.479 0.479 0.479 0.479 0.479 0.478 0.478 0.478 0.477 0.477 0.477 0.477 0.477 0.477 0.477 0.477 0.477 0.478 0.478 0.478 0.478 0.478 0.479 0.479 0.479 0.479 0.479 0.479 0.479 0.479 0.479 0.479 0.479 0.48 0.48 0.48 0.48 0.48 0.48 0.481 0.481 0.481 0.481 0.481 0.481 0.481 0.482 0.482 0.482 0.482 0.482 0.482 0.482 0.482 0.482 0.482 0.482 0.482 0.482 0.482 0.482 0.482 0.482 0.482 0.482 0.482 0.482 0.483 0.483 0.483 0.483 0.483 0.483 0.483 0.483 0.483 0.483 0.483 0.482 0.482 0.482 0.482 0.482 0.482 0.482 0.482 0.482 0.482 0.482 0.482 0.482 0.482 0.483 0.483 0.483 0.483 0.483 0.483 0.484 0.483 0.483 0.483 0.484 0.484 0.484 0.484 0.484 0.484 0.484 0.484 0.484 0.484 0.484 0.484 0.484 0.484 0.484 0.484 0.484 0.484 0.484 0.484 0.484 0.483 0.483 0.483 0.483 0.483 0.483 0.484 0.484 0.484 0.484 0.484 0.484 0.484 0.484 0.484 0.484 0.484 0.484 0.484 0.484 0.484 0.483 0.483 0.484 0.484 0.484 0.484 0.484 0.485 0.485 0.485 0.486 0.486 0.486 0.486 0.486 0.487 0.486 0.486 0.486 0.486 0.486 0.485 0.485 0.485 0.485 0.485 0.485 0.485 0.485 0.485 0.485 0.485 0.485 0.485 0.486 0.486 0.487 0.487 0.487 0.487 0.487 0.487 0.488 0.488 0.488 0.488 0.488 0.488 0.488 0.489 0.489 0.488 0.488 0.488 0.488 0.488 0.488 0.488 0.488 0.488 0.488 0.488 0.487 0.487 0.487 0.488 0.488 0.488 0.488 0.488 0.488 0 0 0 0 0 0 0 0 0 0 0 0 0 0 0 0 0 0 0 0 0 0 0 0 0 0 0 0 0 0 0 0 0 0 0 0 0 0 0 0 0 0 0 0 0 0 0 0 0 0 0 0 0 0 0 0 0 0 0 0 0 0 0 0 0 0 0 0 0 0 0 0 0 0 0 0 0 0 0 0 0 0 0 0 0 0 0 0 0 0 0 0 0 0 0 0 0 0 0 0 0 0 0 0 0 0 0 0 0 0 0 0 0 0 0 0 0 0 0 0 0 0 0 0 0 0 0 0 0 0 0 0 0 0 0 0 0 0 0 0 0 0 0 0 0 0 0 0 0 0 0 0 0 0 0 0 0 0
0.476 0.476 0.476 0.476 0.476 0.476 0.476 0.476 0.476 0.475 0.475 0.475 0.475 0.475 0.475 0.475 0.474 0.474 0.474 0.474 0.474 0.474 0.474 0.474 0.474 0.475 0.475 0.475 0.476 0.476 0.476 0.476 0.476 0.476 0.477 0.477 0.477 0.477 0.477 0.477 0.477 0.477 0.477 0.477 0.477 0.477 0.477 0.477 0.477 0.477 0.477 0.477 0.477 0.478 0.478 0.478 0.478 0.478 0.478 0.478 0.479 0.479 0.479 0.479 0.479 0.479 0.479 0.479 0.479 0.479 0.478 0.478 0.478 0.477 0.477 0.477 0.477 0.477 0.477 0.477 0.477 0.477 0.477 0.477 0.478 0.478 0.478 0.478 0.478 0.478 0.478 0.478 0.478 0.478 0.478 0.478 0.478 0.477 0.477 0.477 0.478 0.478 0.479 0.479 0.479 0.479 0.479 0.479 0.479 0.479 0.479 0.479 0.478 0.478 0.478 0.478 0.478 0.477 0.477 0.477 0.477 0.477 0.478 0.478 0.478 0.478 0.479 0.479 0.479 0.479 0.479 0.479 0.479 0.479 0.479 0.479 0.479 0.479 0.479 0.479 0.48 0.48 0.48 0.48 0.48 0.481 0.481 0.481 0.481 0.481 0.482 0.482 0.482 0.482 0.482 0.482 0.482 0.482 0.482 0.482 0.482 0.482 0.482 0.482 0.482 0.482 0.482 0.482 0.482 0.482 0.482 0.482 0.482 0.482 0.482 0.483 0.483 0.483 0.483 0.483 0.483 0.483 0.482 0.482 0.482 0.482 0.482 0.482 0.482 0.482 0.482 0.482 0.482 0.482 0.482 0.482 0.482 0.482 0.482 0.483 0.483 0.483 0.483 0.483 0.483 0.484 0.483 0.483 0.483 0.484 0.484 0.484 0.484 0.484 0.484 0.484 0.484 0.484 0.484 0.484 0.484 0.484 0.484 0.484 0.484 0.483 0.483 0.483 0.483 0.483 0.483 0.483 0.483 0.483 0.483 0.483 0.483 0.483 0.483 0.484 0.484 0.484 0.484 0.484 0.484 0.484 0.484 0.484 0.484 0.484 0.484 0.483 0.483 0.483 0.483 0.484 0.484 0.484 0.485 0.485 0.485 0.486 0.486 0.486 0.486 0.486 0.487 0.486 0.486 0.486 0.486 0.486 0.485 0.485 0.485 0.485 0.485 0.485 0.485 0.485 0.485 0.485 0.486 0.486 0.486 0.486 0.486 0.487 0.487 0.487 0.487 0.487 0.487 0.488 0.488 0.488 0.489 0.489 0.489 0.489 0.489 0.489 0.488 0.488 0.488 0.488 0.488 0.488 0.488 0.488 0.488 0.488 0.488 0.487 0.487 0.487 0.488 0.488 0.488 0.488 0.488 0.488 0 0 0 0 0 0 0 0 0 0 0 0 0 0 0 0 0 0 0 0 0 0 0 0 0 0 0 0 0 0 0 0 0 0 0 0 0 0 0 0 0 0 0 0 0 0 0 0 0 0 0 0 0 0 0 0 0 0 0 0 0 0 0 0 0 0 0 0 0 0 0 0 0 0 0 0 0 0 0 0 0 0 0 0 0 0 0 0 0 0 0 0 0 0 0 0 0 0 0 0 0 0 0 0 0 0 0 0 0 0 0 0 0 0 0 0 0 0 0 0 0 0 0 0 0 0 0 0 0 0 0 0 0 0 0 0 0 0 0 0 0 0 0 0 0 0 0 0 0 0 0 0 0 0 0 0 0 0
0.476 0.476 0.476 0.476 0.476 0.476 0.476 0.476 0.476 0.476 0.476 0.475 0.475 0.475 0.475 0.475 0.474 0.474 0.474 0.474 0.474 0.474 0.474 0.475 0.475 0.475 0.476 0.476 0.476 0.476 0.476 0.476 0.476 0.476 0.477 0.477 0.476 0.476 0.476 0.477 0.477 0.477 0.477 0.477 0.477 0.477 0.477 0.477 0.477 0.477 0.477 0.477 0.477 0.478 0.478 0.478 0.478 0.478 0.478 0.478 0.479 0.479 0.479 0.479 0.479 0.479 0.479 0.479 0.479 0.479 0.478 0.478 0.478 0.477 0.477 0.477 0.477 0.477 0.477 0.477 0.477 0.477 0.477 0.477 0.478 0.478 0.478 0.478 0.478 0.478 0.478 0.478 0.478 0.478 0.478 0.478 0.478 0.477 0.477 0.477 0.478 0.478 0.479 0.479 0.479 0.479 0.479 0.479 0.479 0.479 0.479 0.479 0.478 0.478 0.478 0.478 0.478 0.477 0.477 0.477 0.477 0.477 0.478 0.478 0.478 0.478 0.479 0.479 0.479 0.479 0.479 0.479 0.479 0.479 0.479 0.479 0.479 0.479 0.479 0.479 0.48 0.48 0.48 0.481 0.481 0.481 0.481 0.481 0.481 0.481 0.482 0.482 0.482 0.482 0.482 0.482 0.482 0.482 0.482 0.482 0.482 0.482 0.482 0.482 0.482 0.482 0.482 0.482 0.482 0.482 0.482 0.482 0.482 0.482 0.482 0.483 0.483 0.483 0.483 0.483 0.483 0.483 0.482 0.482 0.482 0.482 0.482 0.482 0.482 0.482 0.482 0.482 0.482 0.482 0.482 0.482 0.482 0.482 0.482 0.483 0.483 0.483 0.483 0.483 0.483 0.483 0.484 0.484 0.484 0.484 0.484 0.484 0.484 0.484 0.484 0.484 0.484 0.484 0.484 0.484 0.484 0.484 0.484 0.484 0.484 0.483 0.483 0.483 0.483 0.483 0.483 0.483 0.483 0.483 0.483 0.483 0.483 0.483 0.483 0.483 0.483 0.483 0.483 0.483 0.483 0.483 0.483 0.484 0.484 0.483 0.483 0.483 0.483 0.483 0.483 0.484 0.484 0.484 0.485 0.485 0.485 0.486 0.486 0.486 0.486 0.486 0.487 0.486 0.486 0.486 0.485 0.485 0.485 0.485 0.485 0.485 0.485 0.485 0.485 0.485 0.485 0.485 0.486 0.486 0.486 0.486 0.486 0.487 0.487 0.487 0.487 0.487 0.487 0.488 0.488 0.488 0.488 0.488 0.488 0.488 0.488 0.489 0.488 0.488 0.488 0.488 0.488 0.488 0.487 0.487 0.487 0.487 0.487 0.487 0.487 0.487 0.487 0.488 0.488 0.488 0.488 0.488 0 0 0 0 0 0 0 0 0 0 0 0 0 0 0 0 0 0 0 0 0 0 0 0 0 0 0 0 0 0 0 0 0 0 0 0 0 0 0 0 0 0 0 0 0 0 0 0 0 0 0 0 0 0 0 0 0 0 0 0 0 0 0 0 0 0 0 0 0 0 0 0 0 0 0 0 0 0 0 0 0 0 0 0 0 0 0 0 0 0 0 0 0 0 0 0 0 0 0 0 0 0 0 0 0 0 0 0 0 0 0 0 0 0 0 0 0 0 0 0 0 0 0 0 0 0 0 0 0 0 0 0 0 0 0 0 0 0 0 0 0 0 0 0 0 0 0 0 0 0 0 0 0 0 0 0 0 0
0.476 0.476 0.476 0.476 0.476 0.476 0.476 0.476 0.476 0.476 0.476 0.475 0.475 0.475 0.475 0.475 0.474 0.474 0.474 0.474 0.474 0.474 0.474 0.475 0.475 0.476 0.476 0.476 0.476 0.476 0.476 0.476 0.476 0.477 0.477 0.477 0.476 0.476 0.476 0.477 0.477 0.477 0.477 0.477 0.477 0.477 0.477 0.477 0.477 0.477 0.477 0.477 0.477 0.478 0.478 0.478 0.478 0.478 0.478 0.478 0.479 0.479 0.479 0.479 0.479 0.479 0.479 0.479 0.479 0.479 0.478 0.478 0.478 0.478 0.478 0.477 0.477 0.477 0.477 0.477 0.477 0.477 0.477 0.477 0.478 0.478 0.478 0.478 0.478 0.478 0.478 0.478 0.478 0.478 0.478 0.478 0.478 0.478 0.478 0.478 0.478 0.478 0.479 0.479 0.479 0.479 0.479 0.479 0.479 0.479 0.479 0.479 0.478 0.478 0.478 0.478 0.478 0.478 0.478 0.478 0.478 0.478 0.478 0.478 0.478 0.478 0.478 0.479 0.479 0.479 0.479 0.479 0.479 0.479 0.479 0.479 0.479 0.479 0.48 0.48 0.48 0.48 0.48 0.481 0.481 0.481 0.481 0.481 0.481 0.481 0.482 0.482 0.482 0.482 0.482 0.482 0.482 0.482 0.482 0.482 0.482 0.482 0.482 0.482 0.482 0.482 0.482 0.482 0.482 0.482 0.482 0.482 0.482 0.482 0.482 0.483 0.483 0.483 0.483 0.483 0.483 0.482 0.482 0.482 0.482 0.482 0.482 0.482 0.482 0.482 0.482 0.482 0.481 0.481 0.482 0.482 0.482 0.482 0.482 0.483 0.483 0.483 0.483 0.483 0.483 0.483 0.484 0.484 0.484 0.484 0.484 0.484 0.484 0.484 0.484 0.484 0.484 0.484 0.484 0.484 0.484 0.484 0.484 0.484 0.484 0.483 0.483 0.483 0.483 0.483 0.483 0.483 0.483 0.483 0.483 0.483 0.483 0.483 0.483 0.483 0.483 0.483 0.483 0.483 0.483 0.483 0.483 0.484 0.484 0.483 0.483 0.483 0.483 0.484 0.484 0.484 0.484 0.484 0.485 0.485 0.485 0.486 0.486 0.486 0.486 0.487 0.487 0.486 0.486 0.486 0.485 0.485 0.485 0.485 0.485 0.485 0.485 0.485 0.485 0.485 0.485 0.485 0.486 0.486 0.486 0.486 0.486 0.487 0.487 0.487 0.487 0.487 0.488 0.488 0.488 0.488 0.488 0.488 0.488 0.488 0.488 0.488 0.488 0.488 0.488 0.488 0.488 0.488 0.487 0.487 0.487 0.487 0.487 0.487 0.487 0.487 0.487 0.487 0.487 0.487 0.487 0.487 0.488 0.488 0 0 0 0 0 0 0 0 0 0 0 0 0 0 0 0 0 0 0 0 0 0 0 0 0 0 0 0 0 0 0 0 0 0 0 0 0 0 0 0 0 0 0 0 0 0 0 0 0 0 0 0 0 0 0 0 0 0 0 0 0 0 0 0 0 0 0 0 0 0 0 0 0 0 0 0 0 0 0 0 0 0 0 0 0 0 0 0 0 0 0 0 0 0 0 0 0 0 0 0 0 0 0 0 0 0 0 0 0 0 0 0 0 0 0 0 0 0 0 0 0 0 0 0 0 0 0 0 0 0 0 0 0 0 0 0 0 0 0 0 0 0 0 0 0 0 0 0 0 0 0 0 0 0 0 0
0.476 0.476 0.476 0.476 0.476 0.476 0.476 0.476 0.476 0.476 0.476 0.475 0.475 0.475 0.475 0.475 0.475 0.474 0.474 0.474 0.474 0.475 0.475 0.475 0.475 0.476 0.476 0.476 0.476 0.476 0.476 0.476 0.476 0.477 0.477 0.477 0.476 0.476 0.476 0.477 0.477 0.477 0.477 0.477 0.477 0.477 0.477 0.477 0.477 0.477 0.477 0.477 0.477 0.477 0.477 0.478 0.478 0.478 0.478 0.478 0.478 0.479 0.479 0.479 0.479 0.479 0.479 0.479 0.479 0.479 0.478 0.478 0.478 0.478 0.478 0.477 0.477 0.477 0.477 0.477 0.477 0.477 0.477 0.477 0.478 0.478 0.478 0.478 0.478 0.478 0.478 0.478 0.478 0.478 0.478 0.478 0.478 0.478 0.478 0.478 0.478 0.478 0.479 0.479 0.479 0.479 0.479 0.479 0.479 0.479 0.479 0.479 0.478 0.478 0.478 0.478 0.478 0.478 0.478 0.478 0.478 0.478 0.478 0.478 0.478 0.478 0.478 0.479 0.479 0.479 0.479 0.479 0.479 0.479 0.479 0.479 0.479 0.479 0.48 0.48 0.48 0.48 0.48 0.481 0.481 0.481 0.481 0.481 0.482 0.482 0.482 0.482 0.482 0.482 0.482 0.482 0.482 0.482 0.482 0.482 0.482 0.482 0.482 0.482 0.482 0.482 0.482 0.482 0.482 0.482 0.482 0.482 0.482 0.482 0.482 0.482 0.482 0.482 0.483 0.483 0.483 0.482 0.482 0.482 0.482 0.482 0.482 0.482 0.482 0.482 0.481 0.481 0.481 0.481 0.482 0.482 0.482 0.482 0.482 0.483 0.483 0.483 0.483 0.483 0.483 0.483 0.484 0.484 0.484 0.484 0.484 0.484 0.484 0.484 0.484 0.484 0.484 0.484 0.484 0.484 0.484 0.484 0.484 0.484 0.484 0.483 0.483 0.483 0.483 0.483 0.483 0.483 0.483 0.483 0.483 0.483 0.483 0.483 0.483 0.483 0.483 0.483 0.483 0.483 0.483 0.483 0.483 0.484 0.483 0.483 0.483 0.483 0.483 0.484 0.484 0.484 0.484 0.484 0.485 0.485 0.485 0.486 0.486 0.486 0.486 0.486 0.486 0.486 0.486 0.486 0.485 0.485 0.485 0.485 0.485 0.484 0.484 0.484 0.484 0.485 0.485 0.485 0.486 0.486 0.486 0.487 0.487 0.487 0.487 0.487 0.487 0.487 0.488 0.488 0.488 0.488 0.488 0.488 0.488 0.488 0.488 0.488 0.488 0.488 0.488 0.488 0.488 0.488 0.488 0.488 0.487 0.487 0.487 0.487 0.487 0.487 0.487 0.487 0.487 0.487 0.487 0.487 0.488 0.488 0 0 0 0 0 0 0 0 0 0 0 0 0 0 0 0 0 0 0 0 0 0 0 0 0 0 0 0 0 0 0 0 0 0 0 0 0 0 0 0 0 0 0 0 0 0 0 0 0 0 0 0 0 0 0 0 0 0 0 0 0 0 0 0 0 0 0 0 0 0 0 0 0 0 0 0 0 0 0 0 0 0 0 0 0 0 0 0 0 0 0 0 0 0 0 0 0 0 0 0 0 0 0 0 0 0 0 0 0 0 0 0 0 0 0 0 0 0 0 0 0 0 0 0 0 0 0 0 0 0 0 0 0 0 0 0 0 0 0 0 0 0 0 0 0 0 0 0 0 0 0 0 0 0 0 0
0.476 0.476 0.476 0.476 0.476 0.476 0.476 0.476 0.476 0.476 0.476 0.476 0.475 0.475 0.475 0.475 0.475 0.475 0.475 0.475 0.475 0.475 0.475 0.475 0.475 0.476 0.476 0.476 0.476 0.476 0.476 0.477 0.477 0.477 0.477 0.477 0.477 0.477 0.477 0.477 0.477 0.477 0.477 0.477 0.477 0.477 0.477 0.477 0.477 0.477 0.477 0.477 0.477 0.477 0.477 0.477 0.477 0.478 0.478 0.478 0.478 0.478 0.478 0.479 0.479 0.479 0.479 0.479 0.479 0.479 0.479 0.479 0.478 0.478 0.478 0.478 0.477 0.477 0.477 0.477 0.477 0.477 0.477 0.477 0.478 0.478 0.478 0.478 0.478 0.478 0.478 0.478 0.478 0.478 0.478 0.478 0.478 0.478 0.478 0.478 0.478 0.478 0.479 0.479 0.479 0.479 0.479 0.479 0.479 0.479 0.479 0.479 0.478 0.478 0.478 0.478 0.478 0.478 0.478 0.478 0.478 0.478 0.478 0.478 0.478 0.478 0.478 0.479 0.479 0.479 0.479 0.479 0.479 0.479 0.479 0.479 0.479 0.479 0.48 0.48 0.48 0.48 0.48 0.481 0.481 0.481 0.481 0.481 0.482 0.482 0.482 0.482 0.482 0.482 0.482 0.482 0.482 0.482 0.482 0.482 0.482 0.482 0.482 0.482 0.482 0.482 0.482 0.482 0.482 0.482 0.482 0.482 0.482 0.482 0.482 0.482 0.482 0.482 0.483 0.483 0.483 0.482 0.482 0.482 0.482 0.482 0.482 0.482 0.482 0.482 0.481 0.481 0.481 0.481 0.482 0.482 0.482 0.482 0.482 0.483 0.483 0.483 0.484 0.484 0.484 0.484 0.484 0.484 0.484 0.484 0.484 0.484 0.484 0.484 0.484 0.484 0.484 0.484 0.484 0.484 0.484 0.484 0.484 0.484 0.484 0.484 0.484 0.483 0.483 0.484 0.483 0.483 0.483 0.483 0.483 0.483 0.483 0.483 0.483 0.483 0.483 0.483 0.483 0.483 0.483 0.483 0.483 0.483 0.483 0.483 0.483 0.483 0.483 0.484 0.484 0.484 0.484 0.484 0.485 0.485 0.485 0.486 0.486 0.486 0.486 0.486 0.486 0.486 0.486 0.486 0.485 0.485 0.485 0.485 0.485 0.484 0.484 0.484 0.484 0.485 0.485 0.485 0.486 0.486 0.486 0.487 0.487 0.487 0.487 0.487 0.487 0.487 0.488 0.488 0.488 0.488 0.488 0.488 0.488 0.488 0.488 0.488 0.488 0.488 0.488 0.488 0.488 0.488 0.487 0.487 0.487 0.487 0.487 0.487 0.487 0.487 0.487 0.487 0.487 0.487 0.487 0.487 0.488 0.488 0 0 0 0 0 0 0 0 0 0 0 0 0 0 0 0 0 0 0 0 0 0 0 0 0 0 0 0 0 0 0 0 0 0 0 0 0 0 0 0 0 0 0 0 0 0 0 0 0 0 0 0 0 0 0 0 0 0 0 0 0 0 0 0 0 0 0 0 0 0 0 0 0 0 0 0 0 0 0 0 0 0 0 0 0 0 0 0 0 0 0 0 0 0 0 0 0 0 0 0 0 0 0 0 0 0 0 0 0 0 0 0 0 0 0 0 0 0 0 0 0 0 0 0 0 0 0 0 0 0 0 0 0 0 0 0 0 0 0 0 0 0 0 0 0 0 0 0 0 0 0 0 0 0 0 0
0.476 0.476 0.476 0.476 0.476 0.476 0.476 0.476 0.476 0.476 0.476 0.476 0.475 0.475 0.475 0.475 0.475 0.475 0.475 0.475 0.475 0.475 0.475 0.475 0.475 0.476 0.476 0.476 0.476 0.476 0.476 0.476 0.476 0.476 0.476 0.476 0.476 0.477 0.477 0.477 0.477 0.477 0.477 0.477 0.477 0.477 0.477 0.477 0.477 0.477 0.477 0.477 0.477 0.477 0.477 0.477 0.477 0.478 0.478 0.478 0.478 0.478 0.478 0.479 0.479 0.479 0.479 0.479 0.479 0.479 0.479 0.479 0.478 0.478 0.478 0.478 0.478 0.478 0.478 0.478 0.478 0.478 0.478 0.478 0.478 0.478 0.478 0.478 0.478 0.478 0.478 0.478 0.478 0.478 0.478 0.478 0.478 0.478 0.478 0.478 0.478 0.478 0.479 0.479 0.479 0.479 0.479 0.479 0.479 0.479 0.479 0.479 0.479 0.478 0.478 0.478 0.478 0.478 0.478 0.478 0.478 0.478 0.478 0.478 0.478 0.478 0.478 0.479 0.479 0.479 0.479 0.479 0.479 0.479 0.479 0.479 0.479 0.48 0.48 0.48 0.48 0.48 0.48 0.481 0.481 0.482 0.482 0.482 0.482 0.482 0.482 0.482 0.482 0.482 0.482 0.482 0.482 0.482 0.482 0.482 0.482 0.482 0.482 0.482 0.482 0.482 0.482 0.482 0.482 0.482 0.482 0.482 0.482 0.482 0.482 0.482 0.482 0.482 0.482 0.482 0.482 0.482 0.482 0.482 0.482 0.481 0.481 0.481 0.481 0.481 0.481 0.481 0.481 0.481 0.481 0.481 0.482 0.482 0.482 0.483 0.483 0.483 0.484 0.484 0.484 0.484 0.484 0.484 0.484 0.484 0.484 0.484 0.484 0.484 0.484 0.484 0.484 0.484 0.484 0.484 0.484 0.485 0.484 0.484 0.484 0.484 0.484 0.484 0.484 0.484 0.484 0.484 0.484 0.483 0.483 0.483 0.483 0.484 0.483 0.483 0.483 0.483 0.483 0.483 0.483 0.483 0.483 0.483 0.483 0.483 0.483 0.483 0.484 0.484 0.484 0.484 0.484 0.485 0.485 0.485 0.486 0.486 0.486 0.487 0.487 0.487 0.487 0.486 0.486 0.486 0.485 0.485 0.485 0.485 0.485 0.485 0.484 0.484 0.484 0.485 0.485 0.485 0.486 0.486 0.486 0.487 0.487 0.487 0.487 0.487 0.488 0.488 0.488 0.488 0.488 0.488 0.488 0.488 0.488 0.488 0.488 0.488 0.488 0.488 0.488 0.488 0.488 0.487 0.487 0.487 0.487 0.487 0.487 0.487 0.487 0.487 0.487 0.487 0.487 0.487 0.487 0.487 0.488 0.488 0.488 0 0 0 0 0 0 0 0 0 0 0 0 0 0 0 0 0 0 0 0 0 0 0 0 0 0 0 0 0 0 0 0 0 0 0 0 0 0 0 0 0 0 0 0 0 0 0 0 0 0 0 0 0 0 0 0 0 0 0 0 0 0 0 0 0 0 0 0 0 0 0 0 0 0 0 0 0 0 0 0 0 0 0 0 0 0 0 0 0 0 0 0 0 0 0 0 0 0 0 0 0 0 0 0 0 0 0 0 0 0 0 0 0 0 0 0 0 0 0 0 0 0 0 0 0 0 0 0 0 0 0 0 0 0 0 0 0 0 0 0 0 0 0 0 0 0 0 0 0 0 0 0 0 0 0
0.476 0.476 0.476 0.476 0.476 0.476 0.476 0.476 0.476 0.476 0.476 0.476 0.476 0.476 0.475 0.475 0.475 0.475 0.475 0.475 0.475 0.476 0.476 0.476 0.476 0.476 0.476 0.476 0.476 0.476 0.476 0.476 0.476 0.476 0.476 0.476 0.476 0.477 0.477 0.477 0.477 0.477 0.477 0.477 0.477 0.477 0.477 0.477 0.477 0.477 0.477 0.477 0.477 0.477 0.477 0.477 0.477 0.477 0.477 0.477 0.478 0.478 0.478 0.479 0.479 0.478 0.478 0.478 0.479 0.478 0.478 0.478 0.478 0.478 0.478 0.478 0.478 0.478 0.478 0.478 0.478 0.478 0.478 0.478 0.478 0.478 0.478 0.478 0.478 0.478 0.478 0.478 0.478 0.478 0.478 0.478 0.478 0.478 0.478 0.478 0.478 0.478 0.479 0.479 0.479 0.479 0.479 0.479 0.479 0.479 0.479 0.479 0.479 0.478 0.478 0.478 0.478 0.478 0.478 0.478 0.478 0.478 0.478 0.478 0.478 0.478 0.478 0.479 0.479 0.479 0.479 0.479 0.479 0.479 0.479 0.48 0.48 0.48 0.48 0.48 0.48 0.48 0.481 0.481 0.481 0.482 0.482 0.482 0.482 0.482 0.482 0.482 0.482 0.482 0.482 0.482 0.482 0.482 0.482 0.482 0.482 0.482 0.482 0.482 0.482 0.482 0.482 0.482 0.482 0.482 0.482 0.482 0.482 0.482 0.482 0.482 0.482 0.482 0.482 0.482 0.482 0.482 0.482 0.482 0.482 0.481 0.481 0.481 0.481 0.481 0.481 0.481 0.481 0.481 0.481 0.481 0.482 0.482 0.482 0.483 0.483 0.484 0.484 0.484 0.484 0.484 0.484 0.484 0.484 0.485 0.485 0.485 0.485 0.485 0.485 0.485 0.485 0.485 0.485 0.485 0.485 0.485 0.484 0.484 0.484 0.484 0.484 0.484 0.484 0.484 0.484 0.484 0.484 0.483 0.483 0.483 0.483 0.483 0.483 0.483 0.483 0.483 0.483 0.483 0.483 0.483 0.483 0.483 0.483 0.483 0.483 0.483 0.484 0.484 0.484 0.484 0.484 0.485 0.485 0.485 0.486 0.486 0.486 0.486 0.486 0.487 0.487 0.486 0.485 0.485 0.485 0.485 0.485 0.485 0.485 0.485 0.484 0.484 0.484 0.485 0.485 0.485 0.486 0.486 0.486 0.487 0.487 0.487 0.487 0.487 0.488 0.488 0.488 0.488 0.488 0.488 0.488 0.488 0.488 0.488 0.488 0.488 0.488 0.488 0.488 0.488 0.488 0.487 0.487 0.487 0.487 0.487 0.487 0.487 0.487 0.487 0.487 0.487 0.487 0.487 0.487 0.487 0.488 0.488 0.488 0 0 0 0 0 0 0 0 0 0 0 0 0 0 0 0 0 0 0 0 0 0 0 0 0 0 0 0 0 0 0 0 0 0 0 0 0 0 0 0 0 0 0 0 0 0 0 0 0 0 0 0 0 0 0 0 0 0 0 0 0 0 0 0 0 0 0 0 0 0 0 0 0 0 0 0 0 0 0 0 0 0 0 0 0 0 0 0 0 0 0 0 0 0 0 0 0 0 0 0 0 0 0 0 0 0 0 0 0 0 0 0 0 0 0 0 0 0 0 0 0 0 0 0 0 0 0 0 0 0 0 0 0 0 0 0 0 0 0 0 0 0 0 0 0 0 0 0 0 0 0 0 0 0 0
0.476 0.476 0.476 0.476 0.476 0.476 0.476 0.476 0.476 0.476 0.476 0.476 0.476 0.476 0.476 0.476 0.476 0.476 0.476 0.476 0.476 0.476 0.476 0.476 0.476 0.476 0.476 0.476 0.477 0.477 0.477 0.477 0.476 0.476 0.477 0.477 0.477 0.477 0.477 0.477 0.477 0.477 0.477 0.477 0.477 0.477 0.477 0.477 0.477 0.477 0.477 0.477 0.477 0.477 0.477 0.477 0.477 0.477 0.477 0.477 0.478 0.478 0.478 0.478 0.478 0.478 0.478 0.478 0.479 0.478 0.478 0.478 0.478 0.478 0.478 0.478 0.478 0.478 0.478 0.478 0.478 0.478 0.478 0.478 0.478 0.478 0.478 0.478 0.478 0.478 0.478 0.478 0.478 0.478 0.478 0.478 0.478 0.478 0.478 0.478 0.479 0.479 0.479 0.479 0.479 0.479 0.479 0.479 0.479 0.479 0.479 0.479 0.479 0.478 0.478 0.478 0.478 0.478 0.478 0.478 0.478 0.478 0.478 0.478 0.478 0.478 0.478 0.479 0.479 0.479 0.479 0.479 0.479 0.479 0.479 0.48 0.48 0.48 0.48 0.48 0.48 0.48 0.481 0.481 0.481 0.482 0.482 0.482 0.482 0.482 0.482 0.482 0.482 0.482 0.482 0.482 0.482 0.482 0.482 0.482 0.482 0.482 0.482 0.482 0.482 0.482 0.481 0.481 0.481 0.482 0.482 0.482 0.482 0.482 0.482 0.482 0.482 0.482 0.482 0.482 0.482 0.482 0.482 0.482 0.482 0.481 0.481 0.481 0.481 0.481 0.481 0.481 0.481 0.481 0.481 0.481 0.482 0.482 0.482 0.483 0.483 0.484 0.484 0.484 0.484 0.484 0.485 0.485 0.485 0.485 0.485 0.485 0.485 0.485 0.485 0.485 0.485 0.485 0.485 0.485 0.485 0.485 0.485 0.485 0.484 0.484 0.484 0.484 0.484 0.484 0.484 0.484 0.484 0.483 0.483 0.483 0.483 0.483 0.483 0.483 0.483 0.483 0.483 0.483 0.483 0.483 0.483 0.483 0.483 0.483 0.483 0.483 0.484 0.484 0.484 0.484 0.484 0.485 0.485 0.485 0.486 0.486 0.486 0.486 0.486 0.486 0.486 0.486 0.485 0.485 0.485 0.485 0.485 0.485 0.485 0.484 0.484 0.484 0.484 0.485 0.485 0.485 0.486 0.486 0.486 0.487 0.487 0.487 0.487 0.487 0.487 0.487 0.488 0.488 0.488 0.488 0.488 0.488 0.488 0.488 0.488 0.488 0.488 0.488 0.488 0.487 0.487 0.487 0.487 0.487 0.487 0.487 0.487 0.487 0.487 0.487 0.487 0.487 0.487 0.487 0.487 0.487 0.487 0.487 0.488 0 0 0 0 0 0 0 0 0 0 0 0 0 0 0 0 0 0 0 0 0 0 0 0 0 0 0 0 0 0 0 0 0 0 0 0 0 0 0 0 0 0 0 0 0 0 0 0 0 0 0 0 0 0 0 0 0 0 0 0 0 0 0 0 0 0 0 0 0 0 0 0 0 0 0 0 0 0 0 0 0 0 0 0 0 0 0 0 0 0 0 0 0 0 0 0 0 0 0 0 0 0 0 0 0 0 0 0 0 0 0 0 0 0 0 0 0 0 0 0 0 0 0 0 0 0 0 0 0 0 0 0 0 0 0 0 0 0 0 0 0 0 0 0 0 0 0 0 0 0 0 0 0 0 0
0.476 0.476 0.476 0.476 0.476 0.476 0.476 0.476 0.476 0.476 0.476 0.476 0.476 0.476 0.476 0.476 0.476 0.476 0.476 0.476 0.476 0.476 0.476 0.476 0.476 0.476 0.476 0.476 0.477 0.477 0.477 0.477 0.476 0.476 0.477 0.477 0.476 0.476 0.476 0.476 0.476 0.476 0.477 0.477 0.477 0.477 0.477 0.477 0.477 0.477 0.477 0.477 0.477 0.477 0.477 0.477 0.477 0.477 0.477 0.477 0.478 0.478 0.478 0.478 0.478 0.478 0.478 0.478 0.479 0.478 0.478 0.478 0.478 0.478 0.478 0.478 0.478 0.478 0.478 0.478 0.478 0.478 0.478 0.478 0.478 0.478 0.478 0.478 0.478 0.478 0.478 0.478 0.478 0.478 0.478 0.478 0.478 0.478 0.478 0.478 0.479 0.479 0.479 0.479 0.479 0.479 0.479 0.479 0.479 0.479 0.479 0.479 0.479 0.478 0.478 0.478 0.478 0.478 0.478 0.478 0.478 0.478 0.478 0.478 0.479 0.479 0.479 0.479 0.479 0.479 0.479 0.479 0.479 0.479 0.48 0.48 0.48 0.48 0.48 0.48 0.481 0.481 0.481 0.482 0.482 0.482 0.482 0.482 0.482 0.482 0.482 0.482 0.482 0.482 0.482 0.482 0.482 0.482 0.482 0.482 0.482 0.482 0.482 0.482 0.482 0.481 0.481 0.481 0.481 0.481 0.481 0.481 0.481 0.481 0.481 0.481 0.481 0.481 0.482 0.482 0.482 0.482 0.481 0.481 0.481 0.481 0.481 0.481 0.481 0.481 0.481 0.481 0.481 0.481 0.481 0.481 0.481 0.481 0.482 0.483 0.483 0.484 0.484 0.484 0.484 0.484 0.485 0.485 0.485 0.485 0.485 0.485 0.485 0.485 0.485 0.485 0.485 0.485 0.485 0.485 0.485 0.485 0.485 0.485 0.484 0.484 0.484 0.484 0.484 0.484 0.484 0.484 0.484 0.483 0.483 0.483 0.483 0.483 0.483 0.483 0.483 0.483 0.483 0.483 0.483 0.483 0.483 0.483 0.483 0.483 0.483 0.483 0.484 0.484 0.484 0.484 0.484 0.485 0.485 0.485 0.486 0.486 0.486 0.486 0.486 0.486 0.486 0.486 0.485 0.485 0.485 0.485 0.485 0.485 0.485 0.484 0.484 0.484 0.484 0.485 0.485 0.485 0.486 0.486 0.486 0.487 0.487 0.487 0.487 0.487 0.487 0.487 0.488 0.488 0.488 0.488 0.488 0.488 0.488 0.488 0.488 0.488 0.488 0.488 0.488 0.487 0.487 0.487 0.487 0.487 0.487 0.487 0.487 0.487 0.487 0.487 0.487 0.487 0.487 0.487 0.487 0.487 0.487 0.487 0 0 0 0 0 0 0 0 0 0 0 0 0 0 0 0 0 0 0 0 0 0 0 0 0 0 0 0 0 0 0 0 0 0 0 0 0 0 0 0 0 0 0 0 0 0 0 0 0 0 0 0 0 0 0 0 0 0 0 0 0 0 0 0 0 0 0 0 0 0 0 0 0 0 0 0 0 0 0 0 0 0 0 0 0 0 0 0 0 0 0 0 0 0 0 0 0 0 0 0 0 0 0 0 0 0 0 0 0 0 0 0 0 0 0 0 0 0 0 0 0 0 0 0 0 0 0 0 0 0 0 0 0 0 0 0 0 0 0 0 0 0 0 0 0 0 0 0 0 0 0 0 0 0 0 0
0.476 0.476 0.476 0.476 0.476 0.476 0.476 0.476 0.476 0.476 0.476 0.476 0.476 0.476 0.476 0.476 0.476 0.476 0.476 0.476 0.476 0.476 0.476 0.476 0.476 0.477 0.477 0.477 0.477 0.477 0.477 0.477 0.477 0.477 0.477 0.476 0.476 0.476 0.476 0.476 0.476 0.476 0.476 0.476 0.477 0.477 0.477 0.477 0.477 0.477 0.477 0.477 0.477 0.477 0.477 0.477 0.477 0.477 0.477 0.477 0.477 0.477 0.478 0.478 0.478 0.478 0.478 0.478 0.478 0.478 0.478 0.478 0.478 0.478 0.478 0.478 0.478 0.478 0.478 0.478 0.478 0.478 0.478 0.478 0.478 0.478 0.478 0.478 0.478 0.478 0.478 0.478 0.478 0.478 0.478 0.478 0.478 0.478 0.478 0.478 0.479 0.479 0.479 0.479 0.479 0.479 0.479 0.479 0.479 0.479 0.479 0.479 0.479 0.478 0.478 0.478 0.478 0.478 0.478 0.478 0.478 0.478 0.478 0.478 0.479 0.479 0.479 0.479 0.479 0.479 0.479 0.479 0.479 0.479 0.479 0.48 0.48 0.48 0.48 0.48 0.481 0.481 0.481 0.482 0.482 0.482 0.482 0.482 0.482 0.482 0.483 0.483 0.482 0.482 0.482 0.482 0.482 0.482 0.482 0.482 0.482 0.482 0.482 0.482 0.482 0.481 0.481 0.481 0.481 0.481 0.481 0.481 0.481 0.481 0.481 0.481 0.481 0.481 0.482 0.482 0.482 0.482 0.481 0.481 0.481 0.481 0.481 0.481 0.481 0.481 0.481 0.481 0.481 0.481 0.481 0.481 0.481 0.481 0.482 0.483 0.483 0.484 0.484 0.484 0.485 0.485 0.485 0.485 0.485 0.485 0.485 0.485 0.485 0.485 0.485 0.485 0.485 0.485 0.485 0.485 0.485 0.485 0.485 0.485 0.484 0.484 0.484 0.484 0.484 0.484 0.484 0.484 0.484 0.483 0.483 0.483 0.483 0.483 0.483 0.483 0.483 0.483 0.483 0.483 0.483 0.483 0.483 0.483 0.483 0.483 0.484 0.484 0.484 0.484 0.484 0.484 0.484 0.485 0.485 0.485 0.486 0.486 0.486 0.486 0.486 0.486 0.486 0.486 0.485 0.485 0.485 0.485 0.485 0.485 0.485 0.484 0.484 0.484 0.484 0.485 0.485 0.485 0.486 0.486 0.486 0.487 0.487 0.487 0.487 0.487 0.487 0.487 0.488 0.488 0.488 0.488 0.488 0.488 0.488 0.488 0.488 0.488 0.488 0.488 0.488 0.487 0.487 0.487 0.487 0.487 0.487 0.487 0.487 0.486 0.486 0.486 0.487 0.487 0.487 0.487 0.487 0.487 0.487 0.487 0 0 0 0 0 0 0 0 0 0 0 0 0 0 0 0 0 0 0 0 0 0 0 0 0 0 0 0 0 0 0 0 0 0 0 0 0 0 0 0 0 0 0 0 0 0 0 0 0 0 0 0 0 0 0 0 0 0 0 0 0 0 0 0 0 0 0 0 0 0 0 0 0 0 0 0 0 0 0 0 0 0 0 0 0 0 0 0 0 0 0 0 0 0 0 0 0 0 0 0 0 0 0 0 0 0 0 0 0 0 0 0 0 0 0 0 0 0 0 0 0 0 0 0 0 0 0 0 0 0 0 0 0 0 0 0 0 0 0 0 0 0 0 0 0 0 0 0 0 0 0 0 0 0 0 0
0.476 0.476 0.476 0.476 0.476 0.476 0.476 0.476 0.476 0.476 0.476 0.476 0.476 0.476 0.475 0.475 0.475 0.476 0.476 0.476 0.476 0.476 0.476 0.476 0.476 0.477 0.477 0.477 0.477 0.477 0.477 0.477 0.477 0.477 0.477 0.476 0.476 0.476 0.476 0.476 0.476 0.476 0.476 0.476 0.477 0.477 0.477 0.477 0.477 0.477 0.477 0.477 0.477 0.477 0.477 0.477 0.477 0.477 0.477 0.477 0.477 0.477 0.478 0.478 0.478 0.478 0.478 0.478 0.478 0.478 0.478 0.479 0.479 0.478 0.478 0.478 0.478 0.478 0.478 0.478 0.478 0.478 0.478 0.478 0.479 0.479 0.479 0.479 0.479 0.479 0.479 0.479 0.479 0.479 0.479 0.479 0.478 0.478 0.479 0.479 0.479 0.479 0.479 0.479 0.479 0.479 0.479 0.479 0.479 0.479 0.479 0.479 0.479 0.478 0.478 0.478 0.478 0.478 0.478 0.478 0.478 0.478 0.478 0.478 0.479 0.479 0.479 0.479 0.479 0.479 0.479 0.479 0.48 0.479 0.479 0.48 0.48 0.48 0.48 0.48 0.481 0.481 0.481 0.482 0.482 0.482 0.482 0.482 0.482 0.482 0.483 0.483 0.482 0.482 0.482 0.482 0.482 0.482 0.482 0.482 0.482 0.482 0.482 0.481 0.481 0.481 0.481 0.481 0.481 0.481 0.481 0.481 0.481 0.481 0.481 0.481 0.481 0.481 0.481 0.481 0.482 0.482 0.481 0.481 0.481 0.481 0.481 0.481 0.481 0.481 0.481 0.481 0.481 0.481 0.481 0.481 0.481 0.481 0.482 0.483 0.483 0.484 0.484 0.484 0.485 0.485 0.485 0.485 0.485 0.485 0.486 0.486 0.486 0.486 0.486 0.486 0.486 0.486 0.486 0.486 0.486 0.485 0.485 0.485 0.485 0.484 0.484 0.484 0.484 0.484 0.484 0.484 0.484 0.483 0.483 0.483 0.483 0.483 0.483 0.483 0.483 0.483 0.483 0.483 0.484 0.484 0.484 0.484 0.483 0.483 0.484 0.484 0.484 0.484 0.484 0.484 0.484 0.485 0.485 0.485 0.486 0.486 0.486 0.486 0.486 0.486 0.486 0.486 0.485 0.485 0.485 0.485 0.485 0.484 0.484 0.484 0.484 0.484 0.484 0.485 0.485 0.486 0.486 0.486 0.486 0.487 0.487 0.487 0.487 0.487 0.487 0.487 0.488 0.488 0.488 0.488 0.488 0.488 0.488 0.487 0.487 0.487 0.487 0.487 0.487 0.487 0.487 0.487 0.487 0.487 0.486 0.486 0.486 0.486 0.486 0.486 0.487 0.487 0.487 0.487 0.487 0.487 0.487 0.487 0 0 0 0 0 0 0 0 0 0 0 0 0 0 0 0 0 0 0 0 0 0 0 0 0 0 0 0 0 0 0 0 0 0 0 0 0 0 0 0 0 0 0 0 0 0 0 0 0 0 0 0 0 0 0 0 0 0 0 0 0 0 0 0 0 0 0 0 0 0 0 0 0 0 0 0 0 0 0 0 0 0 0 0 0 0 0 0 0 0 0 0 0 0 0 0 0 0 0 0 0 0 0 0 0 0 0 0 0 0 0 0 0 0 0 0 0 0 0 0 0 0 0 0 0 0 0 0 0 0 0 0 0 0 0 0 0 0 0 0 0 0 0 0 0 0 0 0 0 0 0 0 0 0 0 0
0.477 0.476 0.476 0.476 0.476 0.476 0.476 0.476 0.476 0.475 0.475 0.475 0.475 0.475 0.475 0.475 0.475 0.475 0.475 0.475 0.476 0.476 0.476 0.476 0.476 0.477 0.477 0.477 0.477 0.477 0.477 0.477 0.477 0.477 0.477 0.476 0.476 0.476 0.476 0.476 0.476 0.476 0.476 0.476 0.477 0.477 0.477 0.477 0.477 0.477 0.477 0.477 0.477 0.477 0.477 0.477 0.477 0.477 0.477 0.477 0.477 0.477 0.477 0.478 0.478 0.478 0.478 0.478 0.478 0.478 0.478 0.478 0.478 0.478 0.478 0.478 0.478 0.478 0.478 0.478 0.478 0.478 0.478 0.478 0.479 0.479 0.479 0.479 0.479 0.479 0.479 0.479 0.479 0.479 0.479 0.479 0.479 0.479 0.479 0.479 0.479 0.479 0.479 0.479 0.479 0.479 0.479 0.479 0.479 0.479 0.479 0.479 0.479 0.478 0.478 0.478 0.478 0.478 0.478 0.478 0.478 0.478 0.478 0.478 0.479 0.479 0.479 0.479 0.479 0.479 0.479 0.479 0.48 0.48 0.48 0.48 0.48 0.48 0.481 0.481 0.481 0.481 0.482 0.482 0.482 0.482 0.482 0.482 0.483 0.483 0.483 0.483 0.483 0.482 0.482 0.482 0.482 0.482 0.482 0.482 0.482 0.481 0.481 0.481 0.481 0.481 0.48 0.48 0.48 0.48 0.48 0.48 0.48 0.48 0.48 0.48 0.48 0.48 0.481 0.481 0.481 0.481 0.481 0.482 0.481 0.481 0.481 0.481 0.481 0.481 0.48 0.48 0.48 0.481 0.481 0.481 0.481 0.481 0.482 0.483 0.483 0.484 0.484 0.484 0.485 0.485 0.485 0.485 0.485 0.485 0.486 0.486 0.486 0.486 0.486 0.486 0.486 0.486 0.486 0.486 0.486 0.485 0.485 0.485 0.485 0.484 0.484 0.484 0.484 0.484 0.484 0.484 0.484 0.483 0.483 0.483 0.483 0.483 0.483 0.483 0.483 0.483 0.483 0.483 0.484 0.484 0.484 0.484 0.483 0.483 0.484 0.484 0.484 0.484 0.484 0.484 0.484 0.484 0.485 0.485 0.485 0.485 0.486 0.486 0.486 0.486 0.486 0.486 0.485 0.485 0.485 0.485 0.485 0.484 0.484 0.484 0.484 0.484 0.484 0.485 0.485 0.486 0.486 0.486 0.487 0.487 0.487 0.487 0.487 0.487 0.487 0.487 0.488 0.488 0.488 0.488 0.488 0.488 0.488 0.487 0.487 0.487 0.487 0.487 0.487 0.487 0.487 0.487 0.487 0.487 0.486 0.486 0.486 0.486 0.486 0.486 0.487 0.487 0.487 0.487 0.487 0.487 0.487 0.487 2.695 0 0 0 0 0 0 0 0 0 0 0 0 0 0 0 0 0 0 0 0 0 0 0 0 0 0 0 0 0 0 0 0 0 0 0 0 0 0 0 0 0 0 0 0 0 0 0 0 0 0 0 0 0 0 0 0 0 0 0 0 0 0 0 0 0 0 0 0 0 0 0 0 0 0 0 0 0 0 0 0 0 0 0 0 0 0 0 0 0 0 0 0 0 0 0 0 0 0 0 0 0 0 0 0 0 0 0 0 0 0 0 0 0 0 0 0 0 0 0 0 0 0 0 0 0 0 0 0 0 0 0 0 0 0 0 0 0 0 0 0 0 0 0 0 0 0 0 0 0 0 0 0 0 0 0
0.477 0.476 0.476 0.476 0.476 0.476 0.476 0.476 0.476 0.475 0.475 0.475 0.475 0.475 0.475 0.475 0.475 0.475 0.475 0.475 0.476 0.476 0.476 0.476 0.476 0.477 0.477 0.477 0.477 0.477 0.477 0.477 0.477 0.477 0.477 0.476 0.476 0.476 0.476 0.476 0.476 0.476 0.476 0.476 0.477 0.477 0.477 0.477 0.477 0.477 0.477 0.477 0.477 0.477 0.477 0.477 0.477 0.477 0.477 0.477 0.477 0.477 0.477 0.477 0.477 0.478 0.478 0.478 0.478 0.478 0.478 0.478 0.478 0.478 0.478 0.478 0.478 0.478 0.478 0.479 0.479 0.479 0.479 0.479 0.479 0.479 0.479 0.479 0.479 0.479 0.479 0.479 0.479 0.479 0.479 0.479 0.479 0.479 0.479 0.479 0.479 0.479 0.479 0.479 0.479 0.479 0.479 0.479 0.479 0.479 0.479 0.479 0.479 0.478 0.478 0.478 0.478 0.478 0.478 0.478 0.478 0.478 0.478 0.478 0.479 0.479 0.479 0.479 0.479 0.479 0.479 0.479 0.48 0.48 0.48 0.48 0.48 0.48 0.481 0.481 0.481 0.481 0.482 0.482 0.482 0.482 0.482 0.482 0.483 0.483 0.483 0.483 0.483 0.482 0.482 0.482 0.482 0.482 0.482 0.482 0.482 0.481 0.481 0.481 0.481 0.481 0.48 0.48 0.48 0.48 0.48 0.48 0.48 0.48 0.48 0.48 0.48 0.48 0.481 0.481 0.481 0.481 0.481 0.482 0.481 0.481 0.481 0.481 0.481 0.481 0.48 0.48 0.48 0.481 0.481 0.481 0.481 0.481 0.482 0.483 0.483 0.484 0.484 0.484 0.485 0.485 0.485 0.485 0.485 0.486 0.486 0.486 0.486 0.486 0.486 0.486 0.486 0.486 0.486 0.486 0.486 0.485 0.485 0.485 0.485 0.485 0.485 0.484 0.484 0.484 0.484 0.484 0.484 0.483 0.483 0.483 0.483 0.483 0.483 0.483 0.483 0.483 0.483 0.483 0.484 0.484 0.484 0.484 0.484 0.484 0.484 0.484 0.484 0.484 0.484 0.484 0.484 0.484 0.485 0.485 0.485 0.485 0.486 0.486 0.486 0.486 0.486 0.485 0.485 0.485 0.485 0.485 0.485 0.484 0.484 0.484 0.484 0.484 0.484 0.485 0.485 0.486 0.486 0.486 0.487 0.487 0.487 0.487 0.487 0.487 0.487 0.487 0.487 0.487 0.487 0.487 0.487 0.487 0.487 0.487 0.487 0.487 0.487 0.487 0.487 0.487 0.487 0.487 0.486 0.486 0.486 0.486 0.486 0.486 0.486 0.486 0.486 0.486 0.486 0.487 0.487 0.487 0.487 0.487 2.683 2.683 2.683 0 0 0 0 0 0 0 0 0 0 0 0 0 0 0 0 0 0 0 0 0 0 0 0 0 0 0 0 0 0 0 0 0 0 0 0 0 0 0 0 0 0 0 0 0 0 0 0 0 0 0 0 0 0 0 0 0 0 0 0 0 0 0 0 0 0 0 0 0 0 0 0 0 0 0 0 0 0 0 0 0 0 0 0 0 0 0 0 0 0 0 0 0 0 0 0 0 0 0 0 0 0 0 0 0 0 0 0 0 0 0 0 0 0 0 0 0 0 0 0 0 0 0 0 0 0 0 0 0 0 0 0 0 0 0 0 0 0 0 0 0 0 0 0 0 0 0 0 0 0 0 0 0
0.476 0.476 0.476 0.476 0.476 0.476 0.476 0.476 0.476 0.475 0.475 0.475 0.475 0.475 0.475 0.475 0.475 0.475 0.475 0.475 0.476 0.476 0.476 0.476 0.476 0.476 0.477 0.477 0.477 0.477 0.477 0.477 0.477 0.476 0.476 0.476 0.476 0.476 0.476 0.476 0.476 0.476 0.476 0.476 0.477 0.477 0.477 0.477 0.477 0.477 0.477 0.477 0.477 0.477 0.477 0.477 0.477 0.477 0.477 0.477 0.477 0.477 0.477 0.477 0.477 0.478 0.478 0.478 0.478 0.478 0.478 0.478 0.478 0.478 0.479 0.479 0.479 0.478 0.478 0.479 0.479 0.479 0.479 0.479 0.479 0.479 0.479 0.479 0.479 0.479 0.48 0.479 0.479 0.479 0.479 0.479 0.479 0.479 0.479 0.479 0.479 0.479 0.479 0.479 0.479 0.479 0.479 0.479 0.479 0.479 0.479 0.479 0.478 0.478 0.478 0.478 0.478 0.478 0.478 0.478 0.478 0.478 0.479 0.479 0.479 0.479 0.479 0.479 0.479 0.479 0.48 0.48 0.48 0.48 0.48 0.48 0.48 0.48 0.481 0.481 0.481 0.481 0.482 0.482 0.482 0.482 0.482 0.482 0.483 0.483 0.483 0.483 0.483 0.482 0.482 0.482 0.482 0.482 0.482 0.482 0.481 0.481 0.481 0.48 0.48 0.48 0.48 0.48 0.48 0.48 0.48 0.48 0.48 0.48 0.48 0.48 0.48 0.48 0.48 0.48 0.481 0.481 0.481 0.481 0.481 0.481 0.481 0.48 0.48 0.48 0.48 0.48 0.48 0.48 0.48 0.48 0.481 0.481 0.482 0.482 0.482 0.483 0.484 0.484 0.485 0.485 0.485 0.485 0.485 0.486 0.486 0.486 0.486 0.486 0.486 0.486 0.486 0.486 0.486 0.486 0.486 0.486 0.485 0.485 0.485 0.485 0.485 0.484 0.484 0.484 0.484 0.484 0.484 0.483 0.483 0.483 0.483 0.483 0.483 0.483 0.483 0.483 0.483 0.483 0.484 0.484 0.484 0.484 0.484 0.484 0.484 0.484 0.484 0.484 0.484 0.484 0.484 0.484 0.485 0.485 0.485 0.485 0.486 0.486 0.486 0.486 0.486 0.485 0.485 0.485 0.485 0.485 0.485 0.484 0.484 0.484 0.484 0.485 0.485 0.485 0.485 0.486 0.486 0.486 0.487 0.487 0.487 0.487 0.487 0.487 0.487 0.487 0.487 0.487 0.487 0.487 0.487 0.487 0.487 0.487 0.487 0.487 0.487 0.487 0.487 0.487 0.487 0.486 0.486 0.486 0.486 0.486 0.486 0.486 0.486 0.486 0.486 0.486 0.486 0.487 0.487 0.487 2.671 2.671 2.683 2.683 2.683 0 0 0 0 0 0 0 0 0 0 0 0 0 0 0 0 0 0 0 0 0 0 0 0 0 0 0 0 0 0 0 0 0 0 0 0 0 0 0 0 0 0 0 0 0 0 0 0 0 0 0 0 0 0 0 0 0 0 0 0 0 0 0 0 0 0 0 0 0 0 0 0 0 0 0 0 0 0 0 0 0 0 0 0 0 0 0 0 0 0 0 0 0 0 0 0 0 0 0 0 0 0 0 0 0 0 0 0 0 0 0 0 0 0 0 0 0 0 0 0 0 0 0 0 0 0 0 0 0 0 0 0 0 0 0 0 0 0 0 0 0 0 0 0 0 0 0 0 0 0 0 0 0
0.476 0.476 0.476 0.476 0.476 0.476 0.476 0.476 0.475 0.475 0.475 0.474 0.474 0.474 0.474 0.474 0.474 0.475 0.475 0.475 0.475 0.476 0.476 0.476 0.476 0.476 0.476 0.476 0.476 0.476 0.476 0.476 0.476 0.476 0.476 0.476 0.476 0.476 0.476 0.476 0.476 0.476 0.476 0.476 0.477 0.477 0.477 0.477 0.477 0.477 0.477 0.477 0.477 0.477 0.477 0.477 0.477 0.477 0.477 0.477 0.477 0.477 0.477 0.477 0.477 0.477 0.477 0.477 0.478 0.478 0.478 0.478 0.478 0.478 0.479 0.479 0.479 0.478 0.478 0.479 0.479 0.479 0.479 0.479 0.479 0.479 0.479 0.479 0.479 0.479 0.48 0.479 0.479 0.479 0.479 0.479 0.479 0.479 0.479 0.479 0.479 0.479 0.479 0.479 0.479 0.479 0.479 0.479 0.479 0.479 0.479 0.479 0.478 0.478 0.478 0.478 0.478 0.478 0.478 0.478 0.478 0.479 0.479 0.479 0.479 0.479 0.479 0.479 0.479 0.479 0.48 0.48 0.48 0.48 0.48 0.48 0.48 0.48 0.481 0.481 0.482 0.482 0.482 0.482 0.482 0.482 0.482 0.482 0.483 0.483 0.483 0.483 0.483 0.482 0.482 0.482 0.482 0.482 0.482 0.482 0.481 0.481 0.481 0.48 0.48 0.48 0.48 0.48 0.48 0.48 0.48 0.48 0.48 0.48 0.48 0.48 0.48 0.48 0.48 0.48 0.481 0.481 0.481 0.481 0.481 0.481 0.481 0.48 0.48 0.48 0.48 0.48 0.48 0.48 0.48 0.48 0.48 0.48 0.481 0.482 0.482 0.483 0.484 0.484 0.484 0.484 0.485 0.485 0.485 0.485 0.485 0.485 0.486 0.486 0.486 0.486 0.486 0.486 0.486 0.485 0.485 0.485 0.485 0.485 0.485 0.485 0.485 0.484 0.484 0.484 0.484 0.484 0.484 0.483 0.483 0.483 0.483 0.483 0.483 0.483 0.483 0.483 0.483 0.483 0.484 0.484 0.484 0.484 0.484 0.484 0.484 0.484 0.484 0.484 0.484 0.484 0.484 0.484 0.485 0.485 0.485 0.485 0.485 0.486 0.486 0.485 0.485 0.485 0.485 0.485 0.485 0.485 0.485 0.484 0.484 0.484 0.484 0.484 0.484 0.485 0.485 0.486 0.486 0.486 0.486 0.486 0.486 0.487 0.487 0.487 0.487 0.487 0.487 0.487 0.487 0.487 0.487 0.487 0.487 0.487 0.487 0.487 0.487 0.487 0.487 0.487 0.487 0.486 0.486 0.486 0.486 0.486 0.486 0.486 0 2.625 0.486 0.486 0.486 0.487 0.487 2.648 2.648 2.648 2.671 2.671 2.671 0 0 0 0 0 0 0 0 0 0 0 0 0 0 0 0 0 0 0 0 0 0 0 0 0 0 0 0 0 0 0 0 0 0 0 0 0 0 0 0 0 0 0 0 0 0 0 0 0 0 0 0 0 0 0 0 0 0 0 0 0 0 0 0 0 0 0 0 0 0 0 0 0 0 0 0 0 0 0 0 0 0 0 0 0 0 0 0 0 0 0 0 0 0 0 0 0 0 0 0 0 0 0 0 0 0 0 0 0 0 0 0 0 0 0 0 0 0 0 0 0 0 0 0 0 0 0 0 0 0 0 0 0 0 0 0 0 0 0 0 0 0 0 0 0 0 0 0 0 0 0 0 0
0.476 0.476 0.476 0.476 0.476 0.476 0.476 0.476 0.475 0.475 0.475 0.474 0.474 0.474 0.474 0.474 0.474 0.475 0.475 0.475 0.475 0.476 0.476 0.476 0.476 0.476 0.476 0.476 0.476 0.476 0.476 0.476 0.476 0.476 0.476 0.476 0.476 0.476 0.476 0.476 0.476 0.476 0.477 0.477 0.477 0.477 0.477 0.477 0.477 0.477 0.477 0.477 0.477 0.477 0.477 0.477 0.477 0.477 0.477 0.477 0.477 0.477 0.477 0.477 0.477 0.477 0.477 0.477 0.478 0.478 0.478 0.478 0.478 0.478 0.479 0.479 0.479 0.478 0.478 0.479 0.479 0.479 0.479 0.479 0.479 0.479 0.48 0.48 0.48 0.48 0.48 0.48 0.48 0.48 0.479 0.479 0.479 0.479 0.479 0.479 0.479 0.479 0.479 0.479 0.479 0.479 0.479 0.478 0.478 0.478 0.478 0.478 0.478 0.478 0.478 0.478 0.478 0.478 0.478 0.478 0.478 0.479 0.479 0.479 0.479 0.479 0.479 0.479 0.479 0.479 0.48 0.48 0.48 0.48 0.48 0.48 0.48 0.48 0.481 0.481 0.482 0.482 0.482 0.482 0.482 0.482 0.482 0.482 0.483 0.483 0.483 0.483 0.483 0.482 0.482 0.482 0.482 0.482 0.482 0.482 0.481 0.48 0.48 0.48 0.48 0.48 0.479 0.479 0.479 0.479 0.479 0.479 0.479 0.479 0.479 0.479 0.479 0.479 0.48 0.48 0.48 0.48 0.481 0.481 0.481 0.481 0.481 0.48 0.48 0.48 0.48 0.48 0.48 0.48 0.48 0.48 0.48 0.48 0.481 0.482 0.482 0.483 0.484 0.484 0.484 0.484 0.485 0.485 0.485 0.485 0.485 0.485 0.486 0.486 0.486 0.486 0.486 0.486 0.486 0.485 0.485 0.485 0.485 0.485 0.485 0.485 0.485 0.485 0.485 0.484 0.484 0.484 0.484 0.483 0.483 0.483 0.483 0.483 0.483 0.483 0.483 0.483 0.484 0.484 0.484 0.484 0.484 0.484 0.484 0.484 0.484 0.484 0.484 0.484 0.484 0.484 0.484 0.484 0.484 0.484 0.485 0.485 0.485 0.485 0.485 0.485 0.485 0.485 0.485 0.485 0.485 0.485 0.485 0.484 0.484 0.484 0.484 0.484 0.484 0.485 0.485 0.486 0.486 0.486 0.486 0.486 0.486 0.486 0.486 0.487 0.487 0.487 0.487 0.487 0.487 0.487 0.487 0.487 0.487 0.487 0.487 0.487 0.487 0.487 0.487 0.487 0.487 0.486 0.486 0.486 0.485 0.485 0.485 0.485 0 2.625 0.486 0.486 0.486 0.487 0.487 2.648 2.648 2.648 2.636 2.636 2.636 2.636 2.636 0 0 0 0 0 0 0 0 0 0 0 0 0 0 0 0 0 0 0 0 0 0 0 0 0 0 0 0 0 0 0 0 0 0 0 0 0 0 0 0 0 0 0 0 0 0 0 0 0 0 0 0 0 0 0 0 0 0 0 0 0 0 0 0 0 0 0 0 0 0 0 0 0 0 0 0 0 0 0 0 0 0 0 0 0 0 0 0 0 0 0 0 0 0 0 0 0 0 0 0 0 0 0 0 0 0 0 0 0 0 0 0 0 0 0 0 0 0 0 0 0 0 0 0 0 0 0 0 0 0 0 0 0 0 0 0 0 0 0 0 0 0 0 0 0 0 0 0 0 0 0
0.476 0.476 0.476 0.476 0.476 0.476 0.476 0.476 0.475 0.474 0.474 0.474 0.474 0.474 0.474 0.474 0.474 0.474 0.475 0.475 0.475 0.475 0.475 0.476 0.476 0.476 0.476 0.476 0.476 0.476 0.476 0.476 0.476 0.476 0.476 0.476 0.476 0.476 0.476 0.476 0.476 0.476 0.476 0.476 0.476 0.476 0.476 0.476 0.476 0.477 0.477 0.477 0.477 0.477 0.477 0.477 0.477 0.477 0.477 0.477 0.477 0.477 0.477 0.477 0.477 0.477 0.477 0.477 0.478 0.478 0.478 0.478 0.478 0.478 0.479 0.479 0.479 0.479 0.479 0.479 0.479 0.479 0.479 0.479 0.48 0.48 0.48 0.48 0.48 0.48 0.48 0.48 0.48 0.48 0.48 0.48 0.479 0.479 0.479 0.479 0.479 0.479 0.479 0.479 0.479 0.479 0.479 0.478 0.478 0.478 0.478 0.478 0.478 0.478 0.478 0.478 0.478 0.478 0.478 0.478 0.478 0.479 0.479 0.479 0.479 0.479 0.479 0.479 0.479 0.48 0.48 0.48 0.48 0.48 0.48 0.481 0.481 0.481 0.481 0.481 0.482 0.482 0.482 0.482 0.482 0.482 0.482 0.482 0.483 0.483 0.483 0.483 0.482 0.482 0.482 0.482 0.482 0.481 0.481 0.481 0.481 0.48 0.48 0.48 0.48 0.479 0.479 0.479 0.479 0.479 0.479 0.479 0.479 0.479 0.479 0.479 0.479 0.479 0.48 0.48 0.48 0.48 0.481 0.481 0.481 0.48 0.48 0.48 0.48 0.48 0.48 0.48 0.48 0.48 0.48 0.48 0.48 0.48 0.481 0.482 0.482 0.483 0.484 0.484 0.484 0.484 0.485 0.485 0.485 0.485 0.485 0.485 0.485 0.485 0.485 0.486 0.486 0.485 0.485 0.485 0.485 0.485 0.485 0.485 0.485 0.485 0.485 0.485 0.485 0.484 0.484 0.484 0.484 0.483 0.483 0.483 0.483 0.483 0.483 0.483 0.483 0.483 0.483 0.483 0.484 0.484 0.484 0.484 0.484 0.484 0.484 0.484 0.484 0.484 0.484 0.484 0.484 0.484 0.484 0.484 0.485 0.485 0.485 0.485 0.485 0.485 0.485 0.485 0.485 0.485 0.485 0.485 0.485 0.484 0.484 0.484 0.484 0.484 0.484 0.485 0.485 0.486 0.486 0.486 0.486 0.486 0.486 0.486 0.486 0.487 0.487 0.487 0.487 0.487 0.487 0.487 0.487 0.487 0.487 0.487 0.487 0.487 0.487 0.487 0.487 0.487 0.487 0.486 0.486 0.486 0.485 0.485 0.485 0.485 2.445 2.445 2.506 2.636 2.569 2.569 2.569 2.602 0 2.648 2.636 2.636 2.636 2.636 2.636 0 0 0 0 0 0 0 0 0 0 0 0 0 0 0 0 0 0 0 0 0 0 0 0 0 0 0 0 0 0 0 0 0 0 0 0 0 0 0 0 0 0 0 0 0 0 0 0 0 0 0 0 0 0 0 0 0 0 0 0 0 0 0 0 0 0 0 0 0 0 0 0 0 0 0 0 0 0 0 0 0 0 0 0 0 0 0 0 0 0 0 0 0 0 0 0 0 0 0 0 0 0 0 0 0 0 0 0 0 0 0 0 0 0 0 0 0 0 0 0 0 0 0 0 0 0 0 0 0 0 0 0 0 0 0 0 0 0 0 0 0 0 0 0 0 0 0 0 0 0 0
0.477 0.476 0.476 0.476 0.476 0.476 0.476 0.476 0.475 0.474 0.474 0.474 0.474 0.474 0.474 0.474 0.474 0.474 0.475 0.475 0.475 0.475 0.475 0.475 0.475 0.476 0.476 0.476 0.476 0.476 0.476 0.476 0.476 0.476 0.476 0.476 0.476 0.476 0.476 0.476 0.476 0.476 0.476 0.476 0.476 0.476 0.476 0.476 0.476 0.476 0.476 0.476 0.477 0.477 0.477 0.477 0.476 0.476 0.476 0.476 0.476 0.476 0.477 0.477 0.477 0.477 0.477 0.477 0.478 0.478 0.478 0.478 0.478 0.478 0.479 0.479 0.479 0.479 0.479 0.479 0.479 0.479 0.479 0.479 0.48 0.48 0.48 0.48 0.48 0.48 0.48 0.48 0.48 0.48 0.479 0.479 0.479 0.479 0.479 0.479 0.479 0.479 0.479 0.479 0.479 0.478 0.478 0.478 0.478 0.478 0.478 0.478 0.478 0.478 0.478 0.478 0.478 0.478 0.478 0.478 0.478 0.479 0.479 0.479 0.479 0.479 0.479 0.479 0.479 0.48 0.48 0.48 0.48 0.48 0.481 0.481 0.481 0.481 0.482 0.482 0.482 0.482 0.482 0.482 0.482 0.482 0.482 0.482 0.483 0.483 0.483 0.483 0.482 0.482 0.482 0.482 0.482 0.481 0.481 0.481 0.481 0.48 0.48 0.48 0.48 0.479 0.479 0.479 0.479 0.479 0.479 0.479 0.479 0.479 0.479 0.479 0.479 0.479 0.48 0.48 0.48 0.48 0.481 0.481 0.481 0.48 0.48 0.48 0.48 0.48 0.48 0.48 0.48 0.48 0.48 0.48 0.48 0.48 0.481 0.482 0.482 0.482 0.483 0.483 0.484 0.484 0.485 0.485 0.485 0.485 0.485 0.485 0.485 0.485 0.485 0.485 0.485 0.485 0.485 0.485 0.485 0.485 0.485 0.485 0.485 0.485 0.485 0.485 0.485 0.484 0.484 0.484 0.484 0.484 0.484 0.483 0.483 0.483 0.483 0.483 0.483 0.483 0.483 0.483 0.483 0.483 0.484 0.484 0.484 0.484 0.484 0.484 0.484 0.484 0.484 0.484 0.484 0.484 0.484 0.484 0.485 0.485 0.485 0.485 0.485 0.485 0.485 0.485 0.485 0.485 0.485 0.485 0.484 0.484 0.484 0.484 0.484 0.484 0.484 0.485 0.485 0.485 0.486 0.486 0.486 0.486 0.486 0.486 0.486 0.486 0.487 0.487 0.487 0.487 0.487 0.487 0.487 0.487 0.487 0.487 0.487 0.487 0.487 0.487 0.487 0.487 0.487 0.486 0.486 0.486 0.485 0.485 0.485 0.485 2.445 2.445 2.506 0 2.485 2.485 2.485 2.548 0 2.602 2.602 2.614 2.614 2.625 2.625 0 0 0 0 0 0 0 0 0 0 0 0 0 0 0 0 0 0 0 0 0 0 0 0 0 0 0 0 0 0 0 0 0 0 0 0 0 0 0 0 0 0 0 0 0 0 0 0 0 0 0 0 0 0 0 0 0 0 0 0 0 0 0 0 0 0 0 0 0 0 0 0 0 0 0 0 0 0 0 0 0 0 0 0 0 0 0 0 0 0 0 0 0 0 0 0 0 0 0 0 0 0 0 0 0 0 0 0 0 0 0 0 0 0 0 0 0 0 0 0 0 0 0 0 0 0 0 0 0 0 0 0 0 0 0 0 0 0 0 0 0 0 0 0 0 0 0 0 0 0 0
0.476 0.476 0.476 0.476 0.476 0.476 0.475 0.475 0.475 0.474 0.474 0.474 0.474 0.474 0.474 0.474 0.474 0.474 0.474 0.474 0.475 0.475 0.475 0.475 0.475 0.476 0.476 0.476 0.476 0.476 0.476 0.476 0.476 0.476 0.476 0.476 0.476 0.476 0.476 0.476 0.476 0.476 0.476 0.476 0.476 0.476 0.476 0.476 0.476 0.476 0.476 0.476 0.477 0.477 0.477 0.477 0.476 0.476 0.476 0.476 0.476 0.476 0.477 0.477 0.477 0.477 0.477 0.477 0.478 0.478 0.478 0.478 0.478 0.478 0.479 0.479 0.479 0.479 0.479 0.479 0.479 0.479 0.48 0.48 0.48 0.48 0.48 0.48 0.48 0.48 0.48 0.48 0.48 0.48 0.479 0.479 0.479 0.479 0.479 0.479 0.479 0.479 0.479 0.479 0.479 0.478 0.478 0.478 0.478 0.478 0.478 0.478 0.478 0.478 0.478 0.478 0.478 0.478 0.478 0.479 0.479 0.479 0.479 0.479 0.479 0.479 0.479 0.48 0.48 0.48 0.48 0.48 0.48 0.48 0.481 0.481 0.481 0.481 0.482 0.482 0.482 0.482 0.482 0.482 0.482 0.482 0.482 0.482 0.483 0.483 0.483 0.483 0.482 0.482 0.482 0.482 0.482 0.481 0.481 0.481 0.48 0.48 0.48 0.479 0.479 0.479 0.478 0.478 0.478 0.478 0.478 0.478 0.478 0.478 0.478 0.478 0.478 0.479 0.479 0.479 0.48 0.48 0.48 0.481 0.481 0.48 0.48 0.48 0.48 0.48 0.48 0.48 0.479 0.479 0.48 0.48 0.48 0.48 0.48 0.481 0.481 0.482 0.483 0.483 0.484 0.484 0.485 0.485 0.485 0.485 0.485 0.485 0.485 0.485 0.485 0.485 0.485 0.485 0.485 0.485 0.485 0.485 0.485 0.485 0.485 0.485 0.485 0.485 0.485 0.485 0.484 0.484 0.484 0.484 0.484 0.483 0.483 0.483 0.483 0.483 0.483 0.483 0.483 0.483 0.483 0.483 0.484 0.484 0.484 0.484 0.484 0.484 0.484 0.484 0.484 0.484 0.484 0.484 0.484 0.484 0.485 0.485 0.485 0.485 0.485 0.485 0.485 0.485 0.485 0.485 0.485 0.485 0.484 0.484 0.484 0.484 0.484 0.484 0.484 0.485 0.485 0.485 0.486 0.486 0.486 0.486 0.486 0.486 0.486 0.486 0.486 0.486 0.487 0.487 0.487 0.487 0.487 0.487 0 0.487 0.487 0.487 0.487 0.487 0.487 0.487 0.487 0.486 0.486 0.486 0.486 0.486 0.485 0.485 0 2.378 2.378 0 2.485 2.485 2.485 2.548 0 2.602 2.602 2.614 2.614 2.625 2.625 0 0 0 0 0 0 0 0 0 0 0 0 0 0 0 0 0 0 0 0 0 0 0 0 0 0 0 0 0 0 0 0 0 0 0 0 0 0 0 0 0 0 0 0 0 0 0 0 0 0 0 0 0 0 0 0 0 0 0 0 0 0 0 0 0 0 0 0 0 0 0 0 0 0 0 0 0 0 0 0 0 0 0 0 0 0 0 0 0 0 0 0 0 0 0 0 0 0 0 0 0 0 0 0 0 0 0 0 0 0 0 0 0 0 0 0 0 0 0 0 0 0 0 0 0 0 0 0 0 0 0 0 0 0 0 0 0 0 0 0 0 0 0 0 0 0 0 0 0 0 0
0.476 0.476 0.476 0.476 0.476 0.476 0.475 0.475 0.474 0.474 0.474 0.474 0.474 0.474 0.474 0.474 0.474 0.474 0.474 0.474 0.474 0.475 0.475 0.475 0.475 0.475 0.476 0.476 0.476 0.476 0.476 0.476 0.476 0.476 0.476 0.476 0.476 0.476 0.476 0.476 0.476 0.476 0.476 0.476 0.476 0.476 0.476 0.476 0.476 0.476 0.476 0.476 0.476 0.476 0.476 0.476 0.476 0.476 0.476 0.476 0.476 0.476 0.477 0.477 0.477 0.477 0.477 0.477 0.478 0.478 0.478 0.478 0.478 0.478 0.479 0.479 0.479 0.479 0.479 0.479 0.479 0.479 0.48 0.48 0.48 0.48 0.48 0.48 0.48 0.48 0.48 0.48 0.48 0.48 0.48 0.48 0.479 0.479 0.479 0.479 0.479 0.479 0.479 0.479 0.479 0.478 0.478 0.478 0.478 0.478 0.478 0.478 0.478 0.478 0.478 0.478 0.478 0.478 0.479 0.479 0.479 0.479 0.479 0.479 0.479 0.479 0.479 0.48 0.48 0.48 0.48 0.48 0.481 0.481 0.481 0.481 0.481 0.482 0.482 0.482 0.482 0.482 0.482 0.482 0.482 0.482 0.482 0.482 0.483 0.483 0.483 0.483 0.482 0.482 0.482 0.482 0.482 0.481 0.481 0.481 0.48 0.479 0.479 0.479 0.479 0.478 0.478 0.478 0.478 0.477 0.477 0.477 0.477 0.477 0.477 0.478 0.478 0.478 0.479 0.479 0.48 0.48 0.48 0.481 0.481 0.48 0.48 0.48 0.48 0.48 0.48 0.48 0.479 0.479 0.48 0.48 0.48 0.48 0.48 0.481 0.481 0.482 0.483 0.483 0.484 0.484 0.484 0.484 0.484 0.485 0.485 0.485 0.485 0.485 0.485 0.485 0.485 0.485 0.485 0.485 0.485 0.485 0.485 0.485 0.485 0.485 0.485 0.485 0.485 0.485 0.484 0.484 0.484 0.484 0.484 0.483 0.483 0.483 0.483 0.483 0.483 0.483 0.483 0.483 0.483 0.483 0.484 0.484 0.484 0.484 0.484 0.484 0.484 0.484 0.484 0.484 0.484 0.484 0.484 0.484 0.485 0.485 0.485 0.485 0.485 0.485 0.485 0.485 0.485 0.485 0.485 0.485 0.484 0.484 0.484 0.484 0.484 0.484 0.484 0.485 0.485 0.485 0.486 0.486 0.486 0.486 0.486 0.486 0.486 0.486 0.486 0.486 0.487 0.487 0.487 0.487 0.487 0.487 0 0.487 0.487 0.487 0.487 0.487 0.487 0.487 0.487 0.486 0.486 0.486 0.486 0.486 0.485 0.485 2.181 2.181 2.246 2.246 2.323 2.378 2.378 2.465 0 2.548 2.548 2.614 2.614 2.625 2.625 0 0 0 0 0 0 0 0 0 0 0 0 0 0 0 0 0 0 0 0 0 0 0 0 0 0 0 0 0 0 0 0 0 0 0 0 0 0 0 0 0 0 0 0 0 0 0 0 0 0 0 0 0 0 0 0 0 0 0 0 0 0 0 0 0 0 0 0 0 0 0 0 0 0 0 0 0 0 0 0 0 0 0 0 0 0 0 0 0 0 0 0 0 0 0 0 0 0 0 0 0 0 0 0 0 0 0 0 0 0 0 0 0 0 0 0 0 0 0 0 0 0 0 0 0 0 0 0 0 0 0 0 0 0 0 0 0 0 0 0 0 0 0 0 0 0 0 0 0 0 0
0.476 0.476 0.476 0.476 0.476 0.476 0.475 0.475 0.474 0.474 0.474 0.474 0.474 0.474 0.474 0.474 0.474 0.474 0.474 0.474 0.474 0.475 0.475 0.475 0.475 0.475 0.476 0.476 0.476 0.476 0.476 0.476 0.476 0.476 0.476 0.476 0.476 0.476 0.476 0.476 0.476 0.476 0.476 0.476 0.476 0.476 0.476 0.476 0.476 0.476 0.476 0.476 0.476 0.476 0.476 0.476 0.476 0.476 0.476 0.476 0.476 0.476 0.476 0.477 0.477 0.477 0.477 0.477 0.478 0.478 0.478 0.479 0.479 0.479 0.479 0.479 0.479 0.479 0.479 0.479 0.479 0.479 0.48 0.48 0.48 0.48 0.48 0.48 0.48 0.48 0.48 0.48 0.48 0.48 0.48 0.48 0.479 0.479 0.479 0.479 0.479 0.479 0.479 0.479 0.479 0.478 0.478 0.478 0.478 0.478 0.478 0.478 0.478 0.478 0.478 0.478 0.478 0.478 0.478 0.479 0.479 0.479 0.479 0.479 0.479 0.479 0.479 0.48 0.48 0.48 0.48 0.48 0.481 0.481 0.481 0.481 0.481 0.482 0.482 0.482 0.482 0.482 0.482 0.482 0.482 0.482 0.482 0.482 0.483 0.483 0.483 0.483 0.482 0.482 0.482 0.482 0.482 0.481 0.481 0.481 0.48 0.479 0.479 0.479 0.479 0.478 0.478 0.478 0.478 0.477 0.477 0.477 0.477 0.477 0.477 0.478 0.478 0.478 0.479 0.479 0.48 0.48 0.48 0.481 0.481 0.48 0.48 0.48 0.48 0.48 0.48 0.48 0.48 0.48 0.48 0.48 0.48 0.48 0.48 0.481 0.481 0.482 0.483 0.483 0.484 0.484 0.484 0.484 0.484 0.484 0.484 0.484 0.485 0.485 0.485 0.485 0.485 0.485 0.485 0.485 0.485 0.485 0.485 0.485 0.485 0.485 0.485 0.485 0.485 0.485 0.484 0.484 0.484 0.484 0.484 0.484 0.484 0.484 0.484 0.484 0.484 0.484 0.484 0.484 0.484 0.484 0.484 0.484 0.484 0.484 0.484 0.484 0.484 0.484 0.484 0.484 0.484 0.484 0.485 0.485 0.485 0.485 0.485 0.485 0.485 0.485 0.485 0.484 0.484 0.484 0.484 0.485 0.484 0.484 0.484 0.484 0.484 0.484 0.484 0.484 0.484 0.485 0.485 0.485 0.485 0.485 0.485 0.486 0.486 0.486 0.486 0.486 0.487 0.487 0.487 0.487 0.487 0.487 0 0.487 0.487 0.487 0.487 0.487 0.487 0.487 0.487 0.486 0.486 0.486 0.486 0.486 0.485 0.485 2.181 2.181 2.246 2.246 2.323 2.378 2.378 2.465 0 2.548 2.548 0 0 0 0 0 0 0 0 0 0 0 0 0 0 0 0 0 0 0 0 0 0 0 0 0 0 0 0 0 0 0 0 0 0 0 0 0 0 0 0 0 0 0 0 0 0 0 0 0 0 0 0 0 0 0 0 0 0 0 0 0 0 0 0 0 0 0 0 0 0 0 0 0 0 0 0 0 0 0 0 0 0 0 0 0 0 0 0 0 0 0 0 0 0 0 0 0 0 0 0 0 0 0 0 0 0 0 0 0 0 0 0 0 0 0 0 0 0 0 0 0 0 0 0 0 0 0 0 0 0 0 0 0 0 0 0 0 0 0 0 0 0 0 0 0 0 0 0 0 0 0 0 0 0 0
0.476 0.476 0.476 0.476 0.475 0.475 0.475 0.475 0.474 0.474 0.474 0.474 0.473 0.473 0.473 0.473 0.473 0.474 0.474 0.474 0.474 0.474 0.474 0.475 0.475 0.475 0.476 0.476 0.476 0.476 0.476 0.476 0.476 0.476 0.476 0.476 0.476 0.476 0.476 0.476 0.476 0.476 0.476 0.476 0.476 0.476 0.476 0.476 0.476 0.476 0.476 0.476 0.476 0.476 0.476 0.476 0.476 0.476 0.476 0.476 0.476 0.476 0.476 0.477 0.477 0.477 0.477 0.477 0.478 0.478 0.478 0.479 0.479 0.479 0.479 0.479 0.479 0.479 0.479 0.479 0.479 0.479 0.48 0.48 0.48 0.48 0.48 0.48 0.48 0.48 0.48 0.48 0.48 0.48 0.48 0.48 0.48 0.479 0.479 0.479 0.479 0.479 0.479 0.479 0.479 0.478 0.478 0.478 0.478 0.478 0.478 0.478 0.478 0.478 0.478 0.478 0.478 0.478 0.478 0.479 0.479 0.479 0.479 0.479 0.479 0.479 0.48 0.48 0.48 0.48 0.481 0.481 0.481 0.481 0.481 0.482 0.482 0.482 0.482 0.482 0.482 0.482 0.482 0.482 0.482 0.482 0.482 0.482 0.483 0.483 0.482 0.482 0.482 0.482 0.482 0.481 0.481 0.481 0.48 0.48 0.48 0.479 0.479 0.479 0.479 0.478 0.477 0.477 0.477 0.477 0.477 0.477 0.477 0.477 0.477 0.477 0.477 0.478 0.479 0.479 0.479 0.479 0.48 0.48 0.48 0.48 0.48 0.48 0.48 0.48 0.48 0.48 0.48 0.48 0.48 0.48 0.48 0.48 0.48 0.481 0.481 0.482 0.483 0.483 0.484 0.484 0.484 0.484 0.484 0.484 0.484 0.484 0.485 0.485 0.485 0.485 0.485 0.485 0.485 0.485 0.485 0.485 0.485 0.485 0.485 0.485 0.485 0.485 0.485 0.485 0.485 0.485 0.485 0.485 0.485 0.485 0.485 0.485 0.485 0.485 0.484 0.484 0.484 0.484 0.484 0.484 0.484 0.484 0.484 0.484 0.484 0.484 0.484 0.484 0.484 0.484 0.484 0.484 0.485 0.485 0.485 0.485 0.485 0.485 0.485 0.485 0.485 0.484 0.484 0.484 0.484 0.485 0.484 0.484 0.484 0.484 0.484 0.484 0.484 0.484 0.484 0.485 0.485 0.485 0.485 0.485 0.485 0.485 0.485 0.486 0.486 0.486 0.487 0.487 0.487 0.487 0.487 0 0 0.487 0.487 0.487 0.487 0.487 0.487 0.487 0.487 0.487 0.487 0.487 0.486 0.486 0.486 2.028 2.181 2.12 2.12 2.12 2.323 2.378 2.378 2.465 0 0 0 0 0 0 0 0 0 0 0 0 0 0 0 0 0 0 0 0 0 0 0 0 0 0 0 0 0 0 0 0 0 0 0 0 0 0 0 0 0 0 0 0 0 0 0 0 0 0 0 0 0 0 0 0 0 0 0 0 0 0 0 0 0 0 0 0 0 0 0 0 0 0 0 0 0 0 0 0 0 0 0 0 0 0 0 0 0 0 0 0 0 0 0 0 0 0 0 0 0 0 0 0 0 0 0 0 0 0 0 0 0 0 0 0 0 0 0 0 0 0 0 0 0 0 0 0 0 0 0 0 0 0 0 0 0 0 0 0 0 0 0 0 0 0 0 0 0 0 0 0 0 0 0 0 0 0
0.476 0.476 0.476 0.476 0.475 0.475 0.475 0.475 0.474 0.474 0.474 0.473 0.473 0.473 0.473 0.473 0.473 0.473 0.474 0.474 0.474 0.474 0.474 0.474 0.474 0.475 0.476 0.476 0.476 0.476 0.476 0.476 0.476 0.476 0.476 0.476 0.476 0.476 0.476 0.476 0.476 0.476 0.476 0.476 0.476 0.476 0.476 0.476 0.476 0.476 0.476 0.476 0.476 0.476 0.476 0.476 0.476 0.476 0.476 0.476 0.476 0.476 0.476 0.477 0.477 0.477 0.477 0.477 0.478 0.478 0.478 0.479 0.479 0.479 0.479 0.479 0.479 0.479 0.479 0.479 0.479 0.479 0.48 0.48 0.48 0.48 0.48 0.48 0.48 0.48 0.48 0.48 0.48 0.48 0.48 0.48 0.48 0.479 0.479 0.479 0.479 0.479 0.479 0.479 0.479 0.478 0.478 0.478 0.478 0.478 0.478 0.478 0.478 0.478 0.478 0.478 0.478 0.478 0.479 0.479 0.479 0.479 0.479 0.479 0.48 0.48 0.48 0.48 0.48 0.481 0.481 0.481 0.481 0.481 0.482 0.482 0.482 0.482 0.482 0.482 0.482 0.482 0.482 0.482 0.482 0.482 0.482 0.482 0.483 0.483 0.482 0.482 0.482 0.482 0.482 0.481 0.481 0.481 0.48 0.48 0.48 0.479 0.479 0.479 0.479 0.478 0.477 0.477 0.477 0.477 0.477 0.477 0.477 0.477 0.477 0.477 0.477 0.478 0.479 0.479 0.479 0.479 0.48 0.48 0.48 0.48 0.48 0.48 0.48 0.48 0.48 0.48 0.48 0.48 0.48 0.48 0.48 0.48 0.48 0.481 0.481 0.482 0.482 0.482 0.484 0.484 0.484 0.484 0.484 0.484 0.484 0.484 0.484 0.484 0.485 0.485 0.485 0.485 0.485 0.485 0.485 0.485 0.485 0.485 0.485 0.485 0.485 0.485 0.485 0.485 0.485 0.485 0.485 0.485 0.485 0.485 0.485 0.485 0.485 0.485 0.484 0.484 0.484 0.484 0.484 0.484 0.484 0.484 0.484 0.484 0.484 0.484 0.484 0.484 0.484 0.484 0.484 0.484 0.485 0.485 0.485 0.485 0.485 0.485 0.485 0.484 0.484 0.484 0.484 0.484 0.484 0.484 0.484 0.484 0.484 0.484 0.484 0.484 0.484 0.484 0.484 0.485 0.485 0.485 0.485 0.485 0.485 0.485 0.485 0.486 0.486 0.486 0.487 0.487 0.487 0.487 0.487 0 0 0.488 0.488 0.488 0.487 0.487 0.487 0.487 0 0 0 1.937 1.937 0 2.028 2.028 0 2.12 2.12 2.12 0 0 2.262 2.262 0 0 0 0 0 0 0 0 0 0 0 0 0 0 0 0 0 0 0 0 0 0 0 0 0 0 0 0 0 0 0 0 0 0 0 0 0 0 0 0 0 0 0 0 0 0 0 0 0 0 0 0 0 0 0 0 0 0 0 0 0 0 0 0 0 0 0 0 0 0 0 0 0 0 0 0 0 0 0 0 0 0 0 0 0 0 0 0 0 0 0 0 0 0 0 0 0 0 0 0 0 0 0 0 0 0 0 0 0 0 0 0 0 0 0 0 0 0 0 0 0 0 0 0 0 0 0 0 0 0 0 0 0 0 0 0 0 0 0 0 0 0 0 0 0 0 0 0 0 0 0 0 0 0 0 0 0 0
0.476 0.476 0.476 0.476 0.475 0.475 0.475 0.475 0.474 0.474 0.474 0.473 0.473 0.473 0.473 0.473 0.473 0.473 0.474 0.474 0.474 0.474 0.474 0.474 0.474 0.475 0.476 0.476 0.476 0.476 0.476 0.476 0.476 0.476 0.476 0.476 0.476 0.476 0.476 0.476 0.476 0.476 0.476 0.476 0.476 0.476 0.476 0.476 0.476 0.476 0.476 0.476 0.476 0.476 0.476 0.476 0.476 0.476 0.476 0.476 0.476 0.476 0.476 0.477 0.477 0.477 0.478 0.478 0.478 0.478 0.479 0.479 0.479 0.479 0.479 0.479 0.479 0.479 0.479 0.479 0.479 0.479 0.479 0.479 0.479 0.479 0.479 0.48 0.48 0.48 0.48 0.48 0.48 0.48 0.48 0.48 0.479 0.479 0.479 0.479 0.479 0.479 0.479 0.479 0.478 0.478 0.478 0.478 0.478 0.478 0.478 0.478 0.478 0.478 0.478 0.478 0.478 0.478 0.479 0.479 0.479 0.479 0.479 0.479 0.48 0.48 0.48 0.48 0.48 0.481 0.481 0.481 0.481 0.481 0.482 0.482 0.482 0.482 0.482 0.482 0.482 0.482 0.482 0.482 0.482 0.482 0.482 0.482 0.482 0.482 0.482 0.482 0.482 0.482 0.482 0.481 0.481 0.481 0.48 0.48 0.479 0.479 0.479 0.478 0.478 0.477 0.477 0.477 0.477 0.477 0.477 0.477 0.477 0.477 0.477 0.477 0.477 0.478 0.478 0.479 0.479 0.479 0.48 0.48 0.48 0.48 0.48 0.48 0.48 0.48 0.48 0.48 0.48 0.48 0.48 0.48 0.48 0.48 0.48 0.481 0.481 0.482 0.482 0.482 0.484 0.484 0.484 0.484 0.484 0.484 0.484 0.484 0.484 0.484 0.485 0.485 0.485 0.485 0.485 0.485 0.485 0.485 0.485 0.485 0.485 0.485 0.485 0.485 0.485 0.485 0.485 0.485 0.485 0.485 0.485 0.485 0.485 0.485 0.485 0.485 0.485 0.485 0.485 0.485 0.485 0.485 0.484 0.484 0.484 0.484 0.484 0.484 0.484 0.484 0.484 0.484 0.484 0.484 0.485 0.485 0.485 0.485 0.485 0.485 0.484 0.484 0.484 0.484 0.484 0.484 0.484 0.484 0.484 0.484 0.484 0.484 0.484 0.484 0.484 0.484 0.484 0.485 0.485 0.485 0.485 0.485 0.485 0.485 0.485 0.485 0.486 0.486 0.486 0.486 0.487 0.487 0.487 0.487 0.487 0.487 0.488 0.488 0.487 0.487 0.487 0.487 0 0 0 1.907 1.907 1.919 1.919 1.969 2.008 2.008 2.028 2.028 2.158 2.158 2.158 2.262 0 0 0 0 0 0 0 0 0 0 0 0 0 0 0 0 0 0 0 0 0 0 0 0 0 0 0 0 0 0 0 0 0 0 0 0 0 0 0 0 0 0 0 0 0 0 0 0 0 0 0 0 0 0 0 0 0 0 0 0 0 0 0 0 0 0 0 0 0 0 0 0 0 0 0 0 0 0 0 0 0 0 0 0 0 0 0 0 0 0 0 0 0 0 0 0 0 0 0 0 0 0 0 0 0 0 0 0 0 0 0 0 0 0 0 0 0 0 0 0 0 0 0 0 0 0 0 0 0 0 0 0 0 0 0 0 0 0 0 0 0 0 0 0 0 0 0 0 0 0 0 0 0 0 0 0 0 0
0.476 0.476 0.476 0.476 0.475 0.475 0.475 0.475 0.474 0.474 0.474 0.473 0.473 0.473 0.473 0.473 0.473 0.473 0.474 0.474 0.474 0.474 0.474 0.474 0.474 0.475 0.476 0.476 0.476 0.476 0.476 0.476 0.476 0.476 0.476 0.476 0.476 0.476 0.476 0.476 0.476 0.476 0.476 0.476 0.476 0.476 0.476 0.476 0.476 0.476 0.476 0.476 0.476 0.476 0.476 0.476 0.476 0.476 0.476 0.476 0.476 0.476 0.477 0.477 0.477 0.477 0.478 0.478 0.478 0.478 0.479 0.479 0.479 0.479 0.479 0.479 0.479 0.479 0.479 0.479 0.479 0.479 0.479 0.479 0.479 0.479 0.479 0.48 0.48 0.48 0.48 0.48 0.48 0.48 0.48 0.48 0.479 0.479 0.479 0.479 0.479 0.479 0.479 0.479 0.478 0.478 0.478 0.478 0.478 0.478 0.478 0.478 0.478 0.478 0.478 0.478 0.478 0.478 0.479 0.479 0.479 0.479 0.479 0.479 0.48 0.48 0.48 0.48 0.48 0.481 0.481 0.481 0.482 0.482 0.482 0.482 0.482 0.482 0.482 0.482 0.482 0.482 0.482 0.482 0.482 0.482 0.482 0.482 0.482 0.482 0.482 0.482 0.482 0.482 0.481 0.481 0.481 0.48 0.48 0.48 0.479 0.479 0.478 0.477 0.477 0.477 0.476 0.476 0.476 0.476 0.476 0.476 0.476 0.476 0.477 0.477 0.477 0.477 0.477 0.479 0.479 0.479 0.48 0.48 0.48 0.48 0.48 0.48 0.48 0.48 0.48 0.48 0.48 0.48 0.48 0.48 0.48 0.48 0.48 0.481 0.481 0.482 0.482 0.482 0.484 0.484 0.484 0.484 0.484 0.484 0.484 0.484 0.484 0.484 0.485 0.485 0.485 0.485 0.485 0.485 0.485 0.485 0.485 0.485 0.485 0.485 0.486 0.486 0.486 0.486 0.486 0.486 0.486 0.486 0.486 0.486 0.486 0.485 0.485 0.485 0.485 0.485 0.485 0.485 0.485 0.485 0.485 0.485 0.484 0.484 0.484 0.484 0.484 0.484 0.484 0.484 0.484 0.484 0.485 0.485 0.485 0.485 0.485 0.485 0.484 0.484 0.484 0.484 0.484 0.484 0.484 0.484 0.484 0.484 0.484 0.484 0.484 0.484 0.484 0.484 0.484 0.485 0.485 0.485 0.485 0.485 0.485 0.485 0.485 0.485 0.486 0.486 0.486 0.486 0.487 0.487 0.487 0.487 0.487 0.487 0.488 0.488 0.488 0.488 0.487 0.487 0 0 0 1.907 1.907 1.919 1.919 1.969 2.008 2.008 2.028 2.028 2.076 2.076 2.076 2.173 0 0 0 0 0 0 0 0 0 0 0 0 0 0 0 0 0 0 0 0 0 0 0 0 0 0 0 0 0 0 0 0 0 0 0 0 0 0 0 0 0 0 0 0 0 0 0 0 0 0 0 0 0 0 0 0 0 0 0 0 0 0 0 0 0 0 0 0 0 0 0 0 0 0 0 0 0 0 0 0 0 0 0 0 0 0 0 0 0 0 0 0 0 0 0 0 0 0 0 0 0 0 0 0 0 0 0 0 0 0 0 0 0 0 0 0 0 0 0 0 0 0 0 0 0 0 0 0 0 0 0 0 0 0 0 0 0 0 0 0 0 0 0 0 0 0 0 0 0 0 0 0 0 0 0 0 0 0
0.477 0.476 0.476 0.476 0.475 0.475 0.475 0.475 0.474 0.474 0.474 0.474 0.473 0.473 0.473 0.473 0.473 0.474 0.474 0.474 0.474 0.474 0.474 0.475 0.475 0.475 0.476 0.476 0.476 0.476 0.476 0.476 0.476 0.476 0.476 0.476 0.476 0.476 0.476 0.476 0.476 0.476 0.476 0.476 0.476 0.476 0.476 0.476 0.476 0.476 0.476 0.476 0.476 0.476 0.476 0.476 0.476 0.476 0.476 0.476 0.476 0.476 0.477 0.477 0.477 0.477 0.478 0.478 0.478 0.478 0.479 0.479 0.479 0.479 0.479 0.479 0.479 0.479 0.479 0.479 0.479 0.479 0.479 0.479 0.479 0.479 0.479 0.479 0.479 0.48 0.48 0.48 0.48 0.48 0.48 0.48 0.479 0.479 0.479 0.479 0.479 0.479 0.479 0.479 0.478 0.478 0.478 0.478 0.478 0.478 0.478 0.478 0.478 0.478 0.478 0.478 0.478 0.478 0.479 0.479 0.479 0.479 0.479 0.479 0.48 0.48 0.48 0.48 0.48 0.481 0.481 0.481 0.482 0.482 0.482 0.482 0.482 0.482 0.482 0.482 0.482 0.482 0.482 0.482 0.482 0.482 0.482 0.482 0.482 0.482 0.482 0.482 0.482 0.482 0.481 0.481 0.481 0.48 0.48 0.48 0.479 0.479 0.478 0.477 0.477 0.477 0.476 0.476 0.476 0.476 0.476 0.476 0.476 0.476 0.477 0.477 0.477 0.477 0.477 0.479 0.479 0.479 0.48 0.48 0.48 0.48 0.48 0.48 0.48 0.48 0.48 0.48 0.48 0.48 0.48 0.48 0.48 0.48 0.48 0.481 0.481 0.482 0.482 0.482 0.484 0.484 0.484 0.484 0.484 0.484 0.484 0.484 0.484 0.484 0.485 0.485 0.485 0.485 0.485 0.485 0.485 0.485 0.485 0.485 0.485 0.485 0.485 0.486 0.486 0.486 0.486 0.486 0.486 0.486 0.486 0.486 0.486 0.485 0.485 0.485 0.485 0.485 0.485 0.485 0.485 0.485 0.485 0.485 0.484 0.484 0.484 0.484 0.484 0.484 0.484 0.484 0.484 0.484 0.485 0.485 0.485 0.485 0.485 0.485 0.484 0.484 0.484 0.484 0.484 0.484 0.484 0.484 0.484 0.484 0.484 0.484 0.484 0.484 0.484 0.484 0.484 0.485 0.485 0.485 0.485 0.485 0.485 0.485 0.485 0.485 0.486 0.486 0.486 0.486 0.487 0.487 0.487 0.487 0.488 0.488 0.488 0.488 0.488 0.488 0.488 0.489 0 0 0 1.866 1.866 1.877 1.877 1.919 1.95 1.95 2.028 2.021 2.021 2.076 2.076 2.173 0 0 0 0 0 0 0 0 0 0 0 0 0 0 0 0 0 0 0 0 0 0 0 0 0 0 0 0 0 0 0 0 0 0 0 0 0 0 0 0 0 0 0 0 0 0 0 0 0 0 0 0 0 0 0 0 0 0 0 0 0 0 0 0 0 0 0 0 0 0 0 0 0 0 0 0 0 0 0 0 0 0 0 0 0 0 0 0 0 0 0 0 0 0 0 0 0 0 0 0 0 0 0 0 0 0 0 0 0 0 0 0 0 0 0 0 0 0 0 0 0 0 0 0 0 0 0 0 0 0 0 0 0 0 0 0 0 0 0 0 0 0 0 0 0 0 0 0 0 0 0 0 0 0 0 0 0 0
0.477 0.476 0.476 0.476 0.475 0.475 0.475 0.475 0.474 0.474 0.474 0.474 0.473 0.473 0.473 0.473 0.473 0.474 0.474 0.474 0.474 0.474 0.474 0.475 0.475 0.475 0.476 0.476 0.476 0.476 0.476 0.476 0.476 0.476 0.476 0.476 0.476 0.476 0.476 0.476 0.476 0.476 0.476 0.476 0.476 0.476 0.476 0.476 0.476 0.476 0.476 0.476 0.476 0.476 0.476 0.476 0.476 0.476 0.476 0.476 0.476 0.476 0.477 0.477 0.477 0.477 0.478 0.478 0.479 0.479 0.479 0.479 0.479 0.479 0.479 0.479 0.479 0.479 0.479 0.479 0.478 0.478 0.478 0.478 0.478 0.478 0.478 0.479 0.479 0.479 0.479 0.479 0.48 0.479 0.479 0.479 0.479 0.479 0.479 0.479 0.479 0.479 0.479 0.479 0.478 0.478 0.478 0.478 0.478 0.478 0.478 0.478 0.478 0.478 0.478 0.478 0.479 0.479 0.479 0.479 0.479 0.479 0.479 0.479 0.48 0.48 0.48 0.48 0.48 0.481 0.481 0.481 0.482 0.482 0.482 0.482 0.482 0.482 0.482 0.482 0.482 0.482 0.482 0.482 0.482 0.482 0.482 0.482 0.482 0.482 0.481 0.481 0.481 0.481 0.481 0.48 0.48 0.48 0.479 0.479 0.479 0.479 0.478 0.477 0.477 0.477 0.476 0.476 0.476 0.476 0.476 0.476 0.476 0.476 0.476 0.477 0.477 0.477 0.477 0.478 0.479 0.479 0.48 0.48 0.48 0.48 0.48 0.48 0.48 0.48 0.48 0.48 0.48 0.48 0.48 0.48 0.48 0.48 0.481 0.482 0.482 0.482 0.482 0.483 0.484 0.484 0.484 0.484 0.484 0.484 0.484 0.484 0.484 0.484 0.485 0.485 0.485 0.485 0.485 0.485 0.485 0.485 0.485 0.485 0.485 0.485 0.485 0.486 0.486 0.486 0.486 0.486 0.486 0.486 0.486 0.486 0.486 0.486 0.486 0.486 0.486 0.485 0.485 0.485 0.485 0.485 0.485 0.485 0.485 0.484 0.484 0.484 0.484 0.484 0.485 0.485 0.485 0.485 0.485 0.485 0.485 0.485 0.485 0.485 0.485 0.484 0.484 0.484 0.484 0.484 0.484 0.484 0.484 0.484 0.484 0.484 0.484 0.484 0.484 0.484 0.484 0.485 0.485 0.485 0.485 0.485 0.485 0.485 0.485 0.485 0.486 0.486 0.487 0.487 0.487 0.487 0.487 0.487 0.488 0.488 0.488 0.488 0.488 0.488 0.488 0.489 0 0 0 1.866 1.866 1.877 1.877 1.895 1.919 1.919 1.931 1.931 1.969 2.008 2.008 2.173 0 0 0 0 0 0 0 0 0 0 0 0 0 0 0 0 0 0 0 0 0 0 0 0 0 0 0 0 0 0 0 0 0 0 0 0 0 0 0 0 0 0 0 0 0 0 0 0 0 0 0 0 0 0 0 0 0 0 0 0 0 0 0 0 0 0 0 0 0 0 0 0 0 0 0 0 0 0 0 0 0 0 0 0 0 0 0 0 0 0 0 0 0 0 0 0 0 0 0 0 0 0 0 0 0 0 0 0 0 0 0 0 0 0 0 0 0 0 0 0 0 0 0 0 0 0 0 0 0 0 0 0 0 0 0 0 0 0 0 0 0 0 0 0 0 0 0 0 0 0 0 0 0 0 0 0 0 0
0.477 0.476 0.476 0.476 0.476 0.476 0.475 0.475 0.474 0.474 0.474 0.474 0.474 0.474 0.474 0.474 0.474 0.474 0.474 0.474 0.474 0.474 0.474 0.475 0.475 0.475 0.476 0.476 0.476 0.476 0.476 0.476 0.476 0.476 0.476 0.476 0.476 0.476 0.476 0.476 0.476 0.476 0.476 0.476 0.476 0.476 0.476 0.476 0.476 0.476 0.476 0.476 0.476 0.476 0.476 0.476 0.476 0.476 0.476 0.476 0.476 0.476 0.477 0.477 0.477 0.477 0.478 0.478 0.479 0.479 0.479 0.479 0.479 0.479 0.479 0.479 0.479 0.479 0.479 0.479 0.478 0.478 0.478 0.478 0.478 0.478 0.478 0.479 0.479 0.479 0.479 0.479 0.48 0.479 0.479 0.479 0.479 0.479 0.479 0.479 0.479 0.479 0.479 0.479 0.478 0.478 0.478 0.478 0.478 0.478 0.478 0.478 0.478 0.478 0.478 0.479 0.479 0.479 0.479 0.479 0.479 0.479 0.479 0.48 0.48 0.48 0.48 0.48 0.48 0.481 0.481 0.481 0.482 0.482 0.482 0.482 0.482 0.482 0.482 0.482 0.482 0.482 0.482 0.482 0.482 0.482 0.482 0.482 0.482 0.482 0.481 0.481 0.48 0.48 0.48 0.48 0.48 0.479 0.479 0.479 0.478 0.478 0.477 0.477 0.477 0.476 0.476 0.476 0.476 0.476 0.476 0.476 0.476 0.476 0.476 0.477 0.477 0.477 0.477 0.478 0.479 0.479 0.48 0.48 0.48 0.48 0.48 0.48 0.48 0.48 0.48 0.48 0.48 0.48 0.48 0.48 0.481 0.481 0.481 0.482 0.482 0.482 0.482 0.483 0.484 0.484 0.484 0.484 0.484 0.484 0.484 0.484 0.484 0.484 0.485 0.485 0.485 0.485 0.485 0.485 0.485 0.485 0.485 0.485 0.485 0.485 0.485 0.486 0.486 0.486 0.486 0.486 0.486 0.486 0.486 0.486 0.486 0.486 0.486 0.486 0.486 0.485 0.485 0.485 0.485 0.485 0.485 0.485 0.485 0.484 0.484 0.484 0.484 0.484 0.485 0.485 0.485 0.485 0.485 0.485 0.485 0.485 0.485 0.485 0.485 0.484 0.484 0.484 0.484 0.484 0.484 0.484 0.484 0.484 0.484 0.484 0.484 0.484 0.484 0.484 0.484 0.485 0.485 0.485 0.485 0.485 0.485 0.485 0.485 0.486 0.486 0.486 0.487 0.487 0.487 0.487 0.487 0.488 0.488 0.488 0.489 0.489 0.489 0.489 0.489 0.489 0 0 0 1.854 1.854 1.871 1.871 1.895 1.919 1.919 1.931 1.931 1.969 2.008 2.008 0 0 0 0 0 0 0 0 0 0 0 0 0 0 0 0 0 0 0 0 0 0 0 0 0 0 0 0 0 0 0 0 0 0 0 0 0 0 0 0 0 0 0 0 0 0 0 0 0 0 0 0 0 0 0 0 0 0 0 0 0 0 0 0 0 0 0 0 0 0 0 0 0 0 0 0 0 0 0 0 0 0 0 0 0 0 0 0 0 0 0 0 0 0 0 0 0 0 0 0 0 0 0 0 0 0 0 0 0 0 0 0 0 0 0 0 0 0 0 0 0 0 0 0 0 0 0 0 0 0 0 0 0 0 0 0 0 0 0 0 0 0 0 0 0 0 0 0 0 0 0 0 0 0 0 0 0 0 0
0.477 0.476 0.476 0.476 0.476 0.476 0.475 0.475 0.475 0.475 0.475 0.474 0.474 0.474 0.474 0.474 0.474 0.474 0.474 0.474 0.475 0.475 0.475 0.475 0.475 0.475 0.476 0.476 0.476 0.476 0.476 0.476 0.476 0.476 0.476 0.476 0.476 0.476 0.476 0.476 0.476 0.476 0.476 0.476 0.476 0.476 0.476 0.476 0.476 0.476 0.476 0.476 0.476 0.476 0.476 0.476 0.476 0.476 0.476 0.476 0.476 0.476 0.476 0.477 0.477 0.477 0.478 0.478 0.479 0.479 0.479 0.479 0.479 0.479 0.479 0.479 0.479 0.478 0.478 0.478 0.478 0.478 0.478 0.477 0.477 0.477 0.477 0.478 0.478 0.479 0.479 0.479 0.479 0.479 0.479 0.479 0.479 0.479 0.479 0.479 0.479 0.479 0.479 0.479 0.478 0.478 0.478 0.478 0.478 0.478 0.478 0.478 0.478 0.478 0.478 0.479 0.479 0.479 0.479 0.479 0.479 0.479 0.479 0.48 0.48 0.48 0.48 0.48 0.48 0.481 0.481 0.481 0.482 0.482 0.482 0.482 0.482 0.482 0.482 0.482 0.482 0.482 0.482 0.482 0.482 0.482 0.482 0.482 0.482 0.482 0.481 0.481 0.48 0.48 0.48 0.48 0.48 0.479 0.479 0.479 0.478 0.478 0.477 0.477 0.477 0.476 0.476 0.476 0.476 0.476 0.476 0.476 0.476 0.476 0.476 0.477 0.477 0.477 0.477 0.478 0.479 0.479 0.48 0.48 0.48 0.48 0.48 0.48 0.48 0.48 0.48 0.48 0.48 0.481 0.481 0.481 0.481 0.481 0.482 0.482 0.482 0.483 0.483 0.484 0.484 0.484 0.484 0.484 0.484 0.484 0.484 0.484 0.484 0.484 0.485 0.485 0.485 0.485 0.485 0.485 0.485 0.485 0.485 0.485 0.485 0.486 0.486 0.486 0.487 0.487 0.487 0.487 0.487 0.487 0.487 0.487 0.487 0.487 0.487 0.487 0.486 0.486 0.486 0.485 0.485 0.485 0.485 0.485 0.485 0.484 0.484 0.484 0.485 0.485 0.485 0.485 0.485 0.485 0.485 0.485 0.485 0.485 0.484 0.484 0.484 0.484 0.484 0.484 0.484 0.484 0.484 0.484 0.484 0.484 0.484 0.484 0.484 0.484 0.484 0.484 0.484 0.485 0.485 0.485 0.485 0.485 0.485 0.485 0.485 0.486 0.486 0.486 0.487 0.487 0.487 0.487 0.487 0.488 0.488 0.488 0.489 0.489 0.489 0.489 0.489 0.489 0 0 0 1.843 1.843 1.854 1.854 1.871 1.883 1.883 1.889 1.889 1.913 1.95 1.95 0 0 0 0 0 0 0 0 0 0 0 0 0 0 0 0 0 0 0 0 0 0 0 0 0 0 0 0 0 0 0 0 0 0 0 0 0 0 0 0 0 0 0 0 0 0 0 0 0 0 0 0 0 0 0 0 0 0 0 0 0 0 0 0 0 0 0 0 0 0 0 0 0 0 0 0 0 0 0 0 0 0 0 0 0 0 0 0 0 0 0 0 0 0 0 0 0 0 0 0 0 0 0 0 0 0 0 0 0 0 0 0 0 0 0 0 0 0 0 0 0 0 0 0 0 0 0 0 0 0 0 0 0 0 0 0 0 0 0 0 0 0 0 0 0 0 0 0 0 0 0 0 0 0 0 0 0 0 0
0.477 0.476 0.476 0.476 0.476 0.476 0.475 0.475 0.475 0.475 0.475 0.474 0.474 0.474 0.474 0.474 0.474 0.474 0.474 0.474 0.475 0.475 0.475 0.475 0.475 0.475 0.476 0.476 0.476 0.476 0.476 0.476 0.476 0.476 0.476 0.476 0.476 0.476 0.476 0.476 0.476 0.476 0.476 0.476 0.476 0.476 0.476 0.476 0.476 0.476 0.476 0.476 0.476 0.476 0.476 0.476 0.476 0.476 0.476 0.476 0.476 0.476 0.476 0.477 0.477 0.477 0.478 0.478 0.479 0.479 0.479 0.48 0.479 0.479 0.479 0.479 0.479 0.478 0.478 0.478 0.478 0.478 0.478 0.477 0.477 0.477 0.477 0.478 0.478 0.479 0.479 0.479 0.479 0.479 0.479 0.479 0.479 0.479 0.479 0.479 0.479 0.479 0.478 0.478 0.478 0.478 0.478 0.478 0.478 0.478 0.478 0.478 0.478 0.478 0.478 0.479 0.479 0.479 0.479 0.479 0.479 0.479 0.479 0.48 0.48 0.48 0.48 0.481 0.481 0.481 0.481 0.481 0.482 0.482 0.482 0.482 0.482 0.482 0.482 0.482 0.482 0.481 0.481 0.481 0.481 0.481 0.481 0.481 0.481 0.481 0.481 0.481 0.48 0.48 0.48 0.479 0.479 0.479 0.479 0.479 0.478 0.478 0.477 0.477 0.477 0.476 0.476 0.476 0.476 0.476 0.476 0.476 0.476 0.476 0.476 0.477 0.477 0.477 0.477 0.478 0.479 0.479 0.48 0.48 0.48 0.48 0.48 0.48 0.48 0.48 0.48 0.48 0.48 0.481 0.481 0.481 0.481 0.481 0.482 0.482 0.482 0.483 0.483 0.484 0.485 0.485 0.485 0.485 0.484 0.484 0.484 0.484 0.484 0.484 0.485 0.485 0.485 0.485 0.485 0.485 0.485 0.485 0.485 0.485 0.485 0.486 0.486 0.486 0.487 0.487 0.487 0.487 0.487 0.487 0.487 0.488 0.488 0.487 0.487 0.487 0.487 0.486 0.486 0.485 0.485 0.485 0.485 0.485 0.485 0.485 0.485 0.485 0.485 0.485 0.485 0.485 0.485 0.485 0.485 0.485 0.485 0.485 0.484 0.484 0.484 0.484 0.484 0.484 0.484 0.484 0.484 0.484 0.484 0.484 0.484 0.484 0.484 0.484 0.484 0.484 0.484 0.485 0.485 0.485 0.485 0.485 0.485 0.486 0.486 0.486 0.487 0.487 0.487 0.487 0.487 0.487 0.487 0.488 0.488 0.488 0.489 0.489 0.489 0.49 0.49 0.49 0 0 0 1.843 1.843 1.854 1.854 1.871 1.883 1.883 1.889 1.889 1.913 1.943 1.943 0 0 0 0 0 0 0 0 0 0 0 0 0 0 0 0 0 0 0 0 0 0 0 0 0 0 0 0 0 0 0 0 0 0 0 0 0 0 0 0 0 0 0 0 0 0 0 0 0 0 0 0 0 0 0 0 0 0 0 0 0 0 0 0 0 0 0 0 0 0 0 0 0 0 0 0 0 0 0 0 0 0 0 0 0 0 0 0 0 0 0 0 0 0 0 0 0 0 0 0 0 0 0 0 0 0 0 0 0 0 0 0 0 0 0 0 0 0 0 0 0 0 0 0 0 0 0 0 0 0 0 0 0 0 0 0 0 0 0 0 0 0 0 0 0 0 0 0 0 0 0 0 0 0 0 0 0 0 0
0.477 0.476 0.476 0.476 0.476 0.476 0.476 0.476 0.475 0.475 0.475 0.475 0.475 0.475 0.475 0.475 0.475 0.475 0.475 0.475 0.475 0.475 0.475 0.476 0.475 0.475 0.476 0.476 0.476 0.476 0.476 0.476 0.476 0.476 0.476 0.476 0.476 0.476 0.476 0.476 0.476 0.476 0.476 0.476 0.476 0.476 0.476 0.476 0.476 0.476 0.476 0.476 0.476 0.476 0.476 0.476 0.476 0.476 0.476 0.476 0.476 0.476 0.476 0.477 0.477 0.477 0.478 0.478 0.478 0.478 0.479 0.479 0.479 0.479 0.479 0.479 0.479 0.478 0.478 0.478 0.478 0.478 0.478 0.477 0.477 0.477 0.477 0.477 0.477 0.479 0.479 0.479 0.479 0.479 0.479 0.479 0.479 0.479 0.479 0.479 0.479 0.479 0.478 0.478 0.478 0.478 0.478 0.478 0.478 0.478 0.478 0.478 0.478 0.478 0.478 0.479 0.479 0.479 0.479 0.479 0.479 0.479 0.479 0.48 0.48 0.48 0.48 0.481 0.481 0.481 0.481 0.481 0.482 0.482 0.482 0.482 0.482 0.482 0.482 0.482 0.482 0.481 0.481 0.481 0.481 0.481 0.481 0.481 0.481 0.481 0.481 0.481 0.48 0.48 0.48 0.479 0.479 0.479 0.479 0.479 0.478 0.478 0.477 0.477 0.477 0.476 0.476 0.476 0.476 0.476 0.476 0.476 0.476 0.476 0.477 0.477 0.477 0.478 0.478 0.478 0.479 0.479 0.48 0.48 0.48 0.48 0.48 0.481 0.481 0.481 0.481 0.481 0.481 0.482 0.482 0.482 0.482 0.482 0.482 0.483 0.483 0.484 0.484 0.484 0.485 0.485 0.485 0.485 0.484 0.484 0.484 0.484 0.484 0.484 0.485 0.485 0.485 0.485 0.485 0.485 0.485 0.485 0.485 0.485 0.485 0.486 0.486 0.486 0.487 0.487 0.487 0.487 0.487 0.487 0.487 0.488 0.488 0.487 0.487 0.487 0.487 0.486 0.486 0.485 0.485 0.485 0.485 0.485 0.485 0.485 0.485 0.485 0.485 0.485 0.485 0.485 0.485 0.485 0.485 0.485 0.485 0.485 0.484 0.484 0.484 0.484 0.484 0.484 0.484 0.484 0.484 0.484 0.484 0.484 0.484 0.484 0.484 0.484 0.484 0.485 0.485 0.485 0.485 0.485 0.485 0.485 0.485 0.486 0.486 0.487 0.487 0.487 0.487 0.487 0.487 0.488 0.488 0.488 0.489 0.489 0.489 0.489 0.49 0.491 0.491 0 0 0 0 1.837 1.837 1.849 1.849 1.871 1.883 1.883 1.889 1.889 1.907 1.943 1.943 0 0 0 0 0 0 0 0 0 0 0 0 0 0 0 0 0 0 0 0 0 0 0 0 0 0 0 0 0 0 0 0 0 0 0 0 0 0 0 0 0 0 0 0 0 0 0 0 0 0 0 0 0 0 0 0 0 0 0 0 0 0 0 0 0 0 0 0 0 0 0 0 0 0 0 0 0 0 0 0 0 0 0 0 0 0 0 0 0 0 0 0 0 0 0 0 0 0 0 0 0 0 0 0 0 0 0 0 0 0 0 0 0 0 0 0 0 0 0 0 0 0 0 0 0 0 0 0 0 0 0 0 0 0 0 0 0 0 0 0 0 0 0 0 0 0 0 0 0 0 0 0 0 0 0 0 0 0 0
0.477 0.477 0.477 0.476 0.476 0.476 0.476 0.476 0.476 0.476 0.476 0.476 0.476 0.476 0.475 0.475 0.475 0.476 0.476 0.476 0.476 0.476 0.476 0.476 0.476 0.476 0.476 0.476 0.476 0.476 0.476 0.476 0.476 0.476 0.476 0.476 0.476 0.476 0.476 0.476 0.476 0.476 0.476 0.476 0.476 0.476 0.476 0.476 0.476 0.476 0.476 0.476 0.476 0.476 0.476 0.476 0.476 0.476 0.476 0.476 0.476 0.476 0.476 0.477 0.477 0.477 0.478 0.478 0.478 0.478 0.479 0.479 0.479 0.479 0.479 0.479 0.479 0.478 0.478 0.478 0.477 0.477 0.477 0.477 0.477 0.477 0.477 0.477 0.477 0.478 0.478 0.479 0.479 0.479 0.479 0.479 0.479 0.479 0.479 0.478 0.478 0.478 0.478 0.478 0.478 0.478 0.478 0.478 0.478 0.478 0.478 0.478 0.478 0.478 0.478 0.479 0.479 0.479 0.479 0.479 0.479 0.479 0.479 0.48 0.48 0.48 0.48 0.48 0.48 0.481 0.481 0.481 0.481 0.481 0.482 0.482 0.482 0.482 0.482 0.481 0.481 0.481 0.481 0.481 0.481 0.481 0.481 0.481 0.481 0.481 0.481 0.481 0.48 0.48 0.48 0.479 0.479 0.479 0.478 0.478 0.478 0.478 0.477 0.477 0.477 0.476 0.476 0.476 0.476 0.476 0.476 0.476 0.476 0.476 0.477 0.477 0.477 0.478 0.478 0.479 0.479 0.479 0.48 0.48 0.48 0.48 0.48 0.481 0.481 0.481 0.481 0.482 0.482 0.482 0.482 0.483 0.483 0.483 0.484 0.484 0.484 0.485 0.485 0.485 0.485 0.485 0.485 0.485 0.485 0.485 0.485 0.485 0.485 0.485 0.485 0.485 0.485 0.485 0.485 0.485 0.485 0.485 0.485 0.486 0.486 0.486 0.486 0.487 0.487 0.487 0.487 0.488 0.488 0.488 0.488 0.488 0.488 0.488 0.487 0.487 0.487 0.487 0.487 0.486 0.486 0.485 0.485 0.485 0.485 0.485 0.485 0.485 0.485 0.485 0.485 0.485 0.485 0.485 0.485 0.485 0.485 0.485 0.485 0.485 0.484 0.484 0.484 0.484 0.484 0.484 0.484 0.484 0.484 0.484 0.484 0.484 0.484 0.484 0.484 0.485 0.485 0.485 0.485 0.485 0.485 0.485 0.485 0.486 0.486 0.487 0.487 0.487 0.487 0.487 0.487 0.488 0.488 0.488 0.489 0.489 0.489 0.489 0.49 0.491 0.491 0 0 0 0 1.837 1.837 1.849 1.849 1.86 1.866 1.866 1.866 1.866 1.883 1.943 1.943 0 0 0 0 0 0 0 0 0 0 0 0 0 0 0 0 0 0 0 0 0 0 0 0 0 0 0 0 0 0 0 0 0 0 0 0 0 0 0 0 0 0 0 0 0 0 0 0 0 0 0 0 0 0 0 0 0 0 0 0 0 0 0 0 0 0 0 0 0 0 0 0 0 0 0 0 0 0 0 0 0 0 0 0 0 0 0 0 0 0 0 0 0 0 0 0 0 0 0 0 0 0 0 0 0 0 0 0 0 0 0 0 0 0 0 0 0 0 0 0 0 0 0 0 0 0 0 0 0 0 0 0 0 0 0 0 0 0 0 0 0 0 0 0 0 0 0 0 0 0 0 0 0 0 0 0 0 0 0
0.477 0.477 0.477 0.476 0.476 0.476 0.476 0.476 0.476 0.476 0.476 0.476 0.476 0.476 0.475 0.475 0.475 0.476 0.476 0.476 0.476 0.476 0.476 0.476 0.476 0.476 0.476 0.476 0.476 0.476 0.476 0.476 0.476 0.476 0.476 0.476 0.476 0.476 0.476 0.476 0.476 0.476 0.476 0.476 0.476 0.476 0.476 0.476 0.476 0.476 0.476 0.476 0.476 0.476 0.476 0.476 0.476 0.476 0.476 0.476 0.476 0.476 0.476 0.477 0.477 0.477 0.478 0.478 0.479 0.479 0.479 0.48 0.479 0.479 0.479 0.479 0.479 0.478 0.478 0.478 0.477 0.477 0.477 0.477 0.477 0.477 0.477 0.477 0.477 0.478 0.478 0.479 0.479 0.479 0.479 0.479 0.479 0.479 0.479 0.478 0.478 0.478 0.478 0.478 0.478 0.478 0.478 0.478 0.478 0.478 0.478 0.478 0.478 0.478 0.478 0.479 0.479 0.479 0.479 0.479 0.479 0.479 0.479 0.48 0.48 0.48 0.48 0.48 0.48 0.481 0.481 0.481 0.481 0.481 0.481 0.482 0.482 0.482 0.481 0.481 0.481 0.481 0.481 0.481 0.481 0.481 0.481 0.481 0.481 0.481 0.481 0.481 0.48 0.48 0.48 0.479 0.479 0.479 0.478 0.478 0.478 0.478 0.477 0.477 0.477 0.477 0.477 0.477 0.477 0.477 0.477 0.477 0.477 0.477 0.477 0.477 0.477 0.478 0.478 0.479 0.479 0.479 0.48 0.48 0.48 0.48 0.48 0.481 0.481 0.481 0.481 0.482 0.482 0.482 0.482 0.483 0.483 0.483 0.484 0.484 0.484 0.485 0.485 0.485 0.485 0.485 0.485 0.485 0.485 0.485 0.485 0.485 0.485 0.485 0.485 0.485 0.485 0.485 0.485 0.485 0.485 0.485 0.485 0.486 0.486 0.486 0.486 0.487 0.487 0.487 0.488 0.488 0.488 0.489 0.489 0.489 0.489 0.489 0.488 0.488 0.488 0.488 0.487 0.487 0.487 0.486 0.485 0.485 0.485 0.485 0.485 0.485 0.485 0.485 0.485 0.485 0.485 0.485 0.485 0.485 0.485 0.485 0.485 0.485 0.485 0.485 0.485 0.484 0.484 0.484 0.484 0.484 0.484 0.484 0.484 0.484 0.484 0.484 0.484 0.485 0.485 0.485 0.485 0.485 0.485 0.485 0.486 0.486 0.486 0.487 0.487 0.487 0.487 0.487 0.487 0.488 0.488 0.489 0.489 0.489 0.49 0.49 0.491 0.491 0.491 0 0 0 0 1.837 1.837 1.849 1.849 1.86 1.866 1.866 1.866 1.866 1.883 0 0 0 0 0 0 0 0 0 0 0 0 0 0 0 0 0 0 0 0 0 0 0 0 0 0 0 0 0 0 0 0 0 0 0 0 0 0 0 0 0 0 0 0 0 0 0 0 0 0 0 0 0 0 0 0 0 0 0 0 0 0 0 0 0 0 0 0 0 0 0 0 0 0 0 0 0 0 0 0 0 0 0 0 0 0 0 0 0 0 0 0 0 0 0 0 0 0 0 0 0 0 0 0 0 0 0 0 0 0 0 0 0 0 0 0 0 0 0 0 0 0 0 0 0 0 0 0 0 0 0 0 0 0 0 0 0 0 0 0 0 0 0 0 0 0 0 0 0 0 0 0 0 0 0 0 0 0 0 0 0
0.477 0.477 0.477 0.476 0.476 0.476 0.476 0.476 0.476 0.476 0.476 0.476 0.476 0.476 0.476 0.476 0.476 0.476 0.476 0.476 0.476 0.476 0.476 0.476 0.476 0.476 0.476 0.476 0.476 0.476 0.476 0.476 0.476 0.476 0.476 0.476 0.476 0.476 0.476 0.476 0.476 0.476 0.476 0.476 0.476 0.476 0.476 0.476 0.476 0.476 0.476 0.476 0.476 0.476 0.476 0.476 0.476 0.476 0.476 0.476 0.476 0.476 0.476 0.476 0.476 0.477 0.478 0.478 0.478 0.478 0.479 0.479 0.479 0.479 0.479 0.479 0.479 0.478 0.478 0.478 0.477 0.477 0.477 0.477 0.477 0.476 0.476 0.477 0.477 0.477 0.477 0.478 0.478 0.478 0.478 0.478 0.478 0.478 0.478 0.478 0.478 0.478 0.478 0.478 0.478 0.478 0.478 0.478 0.478 0.478 0.478 0.478 0.478 0.478 0.478 0.479 0.479 0.479 0.479 0.479 0.479 0.479 0.479 0.48 0.48 0.48 0.48 0.48 0.48 0.481 0.481 0.481 0.481 0.481 0.481 0.482 0.482 0.482 0.481 0.481 0.481 0.481 0.481 0.481 0.481 0.481 0.481 0.481 0.481 0.481 0.481 0.481 0.48 0.48 0.48 0.479 0.479 0.479 0.479 0.479 0.478 0.478 0.477 0.477 0.477 0.477 0.477 0.477 0.477 0.477 0.477 0.477 0.477 0.477 0.477 0.478 0.478 0.478 0.478 0.479 0.479 0.479 0.48 0.48 0.48 0.48 0.48 0.481 0.481 0.481 0.482 0.482 0.482 0.483 0.483 0.484 0.484 0.484 0.485 0.485 0.485 0.485 0.485 0.485 0.485 0.485 0.485 0.485 0.485 0.485 0.485 0.485 0.485 0.485 0.485 0.485 0.485 0.485 0.485 0.485 0.485 0.485 0.485 0.486 0.486 0.486 0.486 0.487 0.487 0.487 0.488 0.488 0.488 0.489 0.489 0.489 0.489 0.489 0.488 0.488 0.488 0.488 0.487 0.487 0.487 0.486 0.485 0.485 0.485 0.485 0.485 0.485 0.485 0.485 0.485 0.485 0.485 0.485 0.485 0.485 0.485 0.485 0.485 0.485 0.485 0.485 0.485 0.484 0.484 0.484 0.484 0.484 0.484 0.484 0.484 0.484 0.484 0.484 0.484 0.485 0.485 0.485 0.485 0.485 0.485 0.485 0.486 0.486 0.486 0.487 0.487 0.487 0.487 0.487 0.488 0.488 0.488 0.489 0.49 0.49 0.491 0.491 0.491 0.491 0.491 0 0 0 0 1.837 1.837 1.849 1.849 1.86 1.866 1.866 1.866 1.866 1.883 0 0 0 0 0 0 0 0 0 0 0 0 0 0 0 0 0 0 0 0 0 0 0 0 0 0 0 0 0 0 0 0 0 0 0 0 0 0 0 0 0 0 0 0 0 0 0 0 0 0 0 0 0 0 0 0 0 0 0 0 0 0 0 0 0 0 0 0 0 0 0 0 0 0 0 0 0 0 0 0 0 0 0 0 0 0 0 0 0 0 0 0 0 0 0 0 0 0 0 0 0 0 0 0 0 0 0 0 0 0 0 0 0 0 0 0 0 0 0 0 0 0 0 0 0 0 0 0 0 0 0 0 0 0 0 0 0 0 0 0 0 0 0 0 0 0 0 0 0 0 0 0 0 0 0 0 0 0 0 0 0
0.477 0.477 0.477 0.477 0.477 0.477 0.477 0.477 0.476 0.476 0.476 0.476 0.476 0.476 0.476 0.476 0.476 0.476 0.476 0.476 0.476 0.476 0.476 0.476 0.476 0.476 0.476 0.476 0.476 0.476 0.476 0.476 0.476 0.476 0.476 0.476 0.476 0.476 0.476 0.476 0.476 0.476 0.476 0.476 0.476 0.476 0.476 0.476 0.476 0.476 0.476 0.476 0.476 0.476 0.476 0.476 0.476 0.476 0.476 0.476 0.476 0.476 0.476 0.476 0.476 0.477 0.478 0.478 0.478 0.478 0.479 0.479 0.479 0.479 0.479 0.479 0.479 0.478 0.478 0.478 0.477 0.477 0.477 0.477 0.477 0.476 0.476 0.477 0.477 0.477 0.477 0.477 0.478 0.477 0.477 0.477 0.477 0.477 0.477 0.477 0.477 0.477 0.477 0.477 0.477 0.477 0.477 0.477 0.477 0.477 0.478 0.478 0.478 0.479 0.479 0.479 0.479 0.479 0.479 0.479 0.479 0.479 0.479 0.48 0.48 0.48 0.48 0.48 0.48 0.48 0.48 0.481 0.481 0.481 0.481 0.481 0.481 0.482 0.481 0.481 0.481 0.481 0.481 0.481 0.481 0.481 0.481 0.481 0.481 0.481 0.481 0.481 0.48 0.48 0.48 0.479 0.479 0.479 0.479 0.479 0.478 0.478 0.477 0.477 0.477 0.477 0.477 0.477 0.477 0.477 0.477 0.477 0.477 0.477 0.477 0.478 0.478 0.478 0.478 0.479 0.479 0.479 0.48 0.48 0.48 0.48 0.48 0.481 0.482 0.482 0.482 0.483 0.483 0.484 0.484 0.484 0.484 0.484 0.485 0.485 0.485 0.486 0.486 0.486 0.486 0.486 0.485 0.485 0.485 0.485 0.485 0.485 0.485 0.485 0.485 0.485 0.485 0.485 0.485 0.485 0.485 0.485 0.485 0.486 0.486 0.486 0.486 0.487 0.487 0.487 0.488 0.488 0.488 0.489 0.489 0.489 0.489 0.489 0.488 0.488 0.488 0.488 0.487 0.487 0.487 0.486 0.485 0.485 0.485 0.485 0.485 0.485 0.485 0.485 0.485 0.485 0.485 0.485 0.485 0.485 0.485 0.485 0.485 0.485 0.485 0.485 0.485 0.485 0.485 0.484 0.484 0.484 0.484 0.484 0.484 0.484 0.484 0.484 0.485 0.485 0.485 0.485 0.485 0.485 0.485 0.485 0.486 0.486 0.486 0.487 0.487 0.487 0.487 0.487 0.488 0.488 0.488 0.489 0.49 0.49 0.491 0.491 0.491 0.491 0.491 0 0 0 0 0 0 0 0 0 0 0 0 0 0 0 0 0 0 0 0 0 0 0 0 0 0 0 0 0 0 0 0 0 0 0 0 0 0 0 0 0 0 0 0 0 0 0 0 0 0 0 0 0 0 0 0 0 0 0 0 0 0 0 0 0 0 0 0 0 0 0 0 0 0 0 0 0 0 0 0 0 0 0 0 0 0 0 0 0 0 0 0 0 0 0 0 0 0 0 0 0 0 0 0 0 0 0 0 0 0 0 0 0 0 0 0 0 0 0 0 0 0 0 0 0 0 0 0 0 0 0 0 0 0 0 0 0 0 0 0 0 0 0 0 0 0 0 0 0 0 0 0 0 0 0 0 0 0 0 0 0 0 0 0 0 0 0 0 0 0 0 0 0 0 0
0.477 0.477 0.477 0.477 0.477 0.477 0.477 0.477 0.476 0.476 0.476 0.476 0.476 0.476 0.476 0.476 0.476 0.476 0.476 0.476 0.476 0.476 0.476 0.476 0.476 0.476 0.476 0.476 0.476 0.476 0.476 0.476 0.476 0.476 0.476 0.476 0.476 0.476 0.476 0.476 0.476 0.476 0.476 0.476 0.476 0.476 0.476 0.476 0.476 0.476 0.476 0.476 0.476 0.476 0.476 0.476 0.476 0.476 0.476 0.476 0.476 0.476 0.476 0.476 0.476 0.477 0.477 0.477 0.478 0.478 0.479 0.479 0.479 0.479 0.479 0.479 0.479 0.478 0.478 0.478 0.477 0.477 0.477 0.477 0.477 0.477 0.477 0.477 0.477 0.477 0.477 0.477 0.478 0.477 0.477 0.477 0.477 0.477 0.477 0.477 0.477 0.477 0.477 0.477 0.477 0.477 0.477 0.477 0.477 0.477 0.478 0.478 0.478 0.479 0.479 0.479 0.479 0.479 0.479 0.48 0.48 0.48 0.48 0.48 0.48 0.48 0.48 0.48 0.48 0.48 0.48 0.481 0.481 0.481 0.481 0.481 0.481 0.481 0.481 0.481 0.481 0.481 0.481 0.482 0.482 0.482 0.482 0.482 0.482 0.482 0.481 0.481 0.481 0.481 0.48 0.479 0.479 0.479 0.479 0.479 0.478 0.478 0.478 0.477 0.477 0.477 0.477 0.477 0.477 0.477 0.477 0.477 0.477 0.477 0.478 0.478 0.478 0.479 0.479 0.479 0.48 0.48 0.48 0.48 0.48 0.481 0.481 0.481 0.482 0.482 0.482 0.483 0.483 0.484 0.484 0.484 0.484 0.484 0.485 0.485 0.485 0.486 0.486 0.486 0.486 0.486 0.485 0.485 0.485 0.485 0.485 0.485 0.485 0.485 0.485 0.485 0.485 0.485 0.485 0.485 0.485 0.485 0.485 0.486 0.486 0.486 0.486 0.487 0.487 0.487 0.488 0.488 0.488 0.489 0.489 0.489 0.489 0.489 0.488 0.488 0.488 0.488 0.487 0.487 0.487 0.486 0.486 0.486 0.485 0.485 0.485 0.485 0.485 0.485 0.485 0.485 0.485 0.485 0.485 0.485 0.485 0.485 0.485 0.485 0.485 0.485 0.485 0.485 0.485 0.485 0.485 0.485 0.485 0.485 0.485 0.485 0.485 0.485 0.485 0.485 0.485 0.485 0.485 0.486 0.486 0.486 0.486 0.487 0.487 0.487 0.487 0.487 0.487 0.487 0.488 0.488 0.488 0.489 0.49 0.49 0.491 0.491 0.491 0.492 0.492 0 0 0 0 0 0 0 0 0 0 0 0 0 0 0 0 0 0 0 0 0 0 0 0 0 0 0 0 0 0 0 0 0 0 0 0 0 0 0 0 0 0 0 0 0 0 0 0 0 0 0 0 0 0 0 0 0 0 0 0 0 0 0 0 0 0 0 0 0 0 0 0 0 0 0 0 0 0 0 0 0 0 0 0 0 0 0 0 0 0 0 0 0 0 0 0 0 0 0 0 0 0 0 0 0 0 0 0 0 0 0 0 0 0 0 0 0 0 0 0 0 0 0 0 0 0 0 0 0 0 0 0 0 0 0 0 0 0 0 0 0 0 0 0 0 0 0 0 0 0 0 0 0 0 0 0 0 0 0 0 0 0 0 0 0 0 0 0 0 0 0 0 0 0 0
